-0.212845 0.84949 0.215112
-0.669255 0.693293 -0.128158
-0.0444338 -0.971016 0.112102
-0.456827 0.239128 -0.0867228
-0.722571 -0.300893 0.247568
-0.86695 0.00328886 0.220829
-0.151761 0.981936 -0.0504593
-0.101443 0.794942 -0.24434
-0.0643074 -0.513116 -0.0917357
-0.452231 -0.232039 -0.064064
-0.894883 0.197718 -0.185447
-0.446454 0.88524 -0.0602311
-0.272251 -0.55904 -0.214707
-0.772023 -0.399178 0.21942
-0.719346 0.126406 -0.249066
-0.695978 -0.65048 0.144552
-0.612159 0.164159 -0.221574
-0.782405 0.369358 0.221236
-0.423938 0.799637 0.195765
-0.984508 0.0626568 0.0771802
-0.856737 -0.166892 0.217391
-0.476724 0.416149 0.2211
-0.983939 -0.109148 -0.0675292
-0.61206 -0.304266 0.240934
-0.822116 0.140197 -0.234861
-0.537284 0.800159 0.128803
-0.753498 -0.644782 -0.0594955
-0.704739 -0.509945 0.218667
-0.477727 0.196357 0.0888071
-0.302724 -0.459085 0.149587
-0.935717 -0.165942 0.148039
-0.21325 -0.454547 -0.0345077
-0.512702 0.347888 -0.213071
-0.175694 -0.562886 0.191875
-0.249007 -0.936047 -0.119208
0.725289 0.290727 0.247717
-0.844293 0.528602 -0.0357297
-0.655696 -0.719962 -0.108358
-0.632323 0.328143 -0.246909
-0.741601 -0.00197411 0.249592
-0.40896 -0.291367 0.0342721
-0.0513267 0.49834 0.021994
-0.199885 -0.471438 0.0767332
-0.106341 -0.48834 -0.00297744
-0.0324333 -0.997707 0.0142332
-0.735633 0.567102 0.173432
-0.362972 -0.888178 -0.135841
-0.443592 0.53455 0.243589
-0.346143 -0.932794 -0.042825
-0.00434519 0.748617 0.249943
-0.959799 -0.0380458 0.132552
-0.366514 -0.385728 0.12296
-0.253162 -0.688473 0.249234
-0.626761 -0.740253 0.117666
-0.664411 0.0779756 0.236386
-0.206461 0.801595 -0.237029
0.739095 -0.0825549 -0.24971
-0.19713 0.597606 0.219097
-0.290003 -0.407862 0.0194624
-0.678502 0.436781 -0.243012
-0.92279 0.384417 0.00496409
-0.187736 0.972255 0.0676335
-0.645464 -0.647582 -0.187999
-0.614639 -0.186189 -0.225249
-0.0263908 -0.650656 -0.229846
0.51413 -0.12378 0.117672
-0.896284 0.100261 0.197863
-0.940833 -0.161751 -0.142038
-0.549131 -0.515159 0.249816
-0.946974 0.297715 0.0570964
-0.288243 0.942228 0.0831717
-0.875019 0.0126204 -0.215811
-0.13128 -0.748288 0.249491
-0.155346 0.514367 -0.130905
-0.371534 -0.91133 0.0860586
-0.40519 0.352254 -0.131051
-0.779148 -0.555628 -0.138741
-0.897187 0.30504 -0.151322
-0.297661 0.539715 0.21122
-0.770079 0.243293 -0.242885
-0.955346 -0.243524 -0.0786063
-0.759462 0.635897 0.0656836
-0.285877 0.644698 0.245886
-0.53329 0.577067 -0.246993
-0.131747 0.783812 0.245664
-0.00364166 -0.573636 0.177313
-0.31866 0.794441 0.225902
-0.835788 -0.338302 -0.198155
-0.92596 0.193733 0.154323
-0.139927 0.931505 0.158777
-0.461807 0.760689 -0.206338
-0.992986 0.0695025 -0.0406551
-0.472884 -0.216765 0.0993872
-0.416802 -0.587024 -0.248079
-0.306398 0.87499 -0.175226
-0.266313 -0.951138 0.0745322
-0.0245678 0.933345 0.168198
-0.516687 -0.0559507 -0.0975739
0.205705 -0.557831 -0.196099
-0.83855 0.523936 0.0703271
-0.461461 0.660977 -0.243194
0.685828 -0.725299 -0.0165173
-0.285057 0.410491 0.00244728
0.200144 0.731236 -0.249564
-0.490002 0.717714 0.219542
-0.498058 -0.518858 -0.24795
-0.35145 0.93503 -0.000488851
-0.173635 -0.84244 -0.223995
-0.560241 0.697616 -0.203231
-0.896048 -0.440611 -0.00798332
-0.420696 0.450904 -0.211618
-0.765336 -0.472921 -0.199136
0.22619 0.738707 0.248887
-0.359856 0.885751 0.140928
-0.433815 0.304831 0.119769
-0.49811 0.0786248 0.0490133
-0.742563 -0.353983 -0.238864
-0.804827 0.25973 0.230673
-0.551071 -0.785623 -0.134588
-0.455997 -0.880875 -0.0596945
-0.763631 -0.633552 0.0596318
0.513488 0.292444 -0.19332
-0.063528 0.664921 0.235877
-0.299629 0.43399 -0.114019
-0.881178 -0.41146 -0.111104
-0.508076 -0.255426 -0.172326
-0.391537 -0.465362 -0.205922
-0.638825 0.0422613 -0.224619
-0.952813 -0.0493117 -0.142441
-0.155825 -0.974972 -0.0746965
-0.134212 -0.930773 0.160503
-0.558543 0.332306 0.229254
-0.700156 -0.710592 0.0304633
-0.53283 0.844258 0.0146958
-0.0739039 0.567647 0.176572
-0.32594 -0.827315 -0.207171
-0.636743 -0.399852 -0.249871
-0.601339 0.00813219 0.200919
-0.663787 -0.0744246 0.235979
-0.175841 -0.516944 -0.144947
-0.499456 -0.0430445 0.0269754
-0.621208 -0.590534 0.225188
-0.141209 -0.663453 -0.239553
-0.0770338 0.980504 0.086397
-0.163024 -0.98271 0.0352934
0.780164 0.620784 -0.0323283
-0.357957 0.792555 -0.218858
-0.794369 -0.0774645 -0.245285
-0.816971 -0.574439 -0.00825144
-0.516423 0.246025 -0.176221
-0.489073 -0.863054 0.0579574
-0.42242 -0.773287 -0.212299
-0.322117 -0.557692 0.226428
-0.779881 0.112184 0.246668
-0.0510042 -0.97811 -0.0964188
-0.554817 -0.827651 -0.0401176
-0.954369 0.25606 -0.072734
-0.660389 0.201449 0.242505
-0.808644 0.478479 -0.161395
-0.161234 0.518483 0.14026
-0.997248 -0.0383576 0.0176642
-0.418095 -0.327172 -0.120909
-0.913064 -0.27277 0.145285
-0.708601 -0.187828 0.249208
-0.914013 -0.361808 0.08816
-0.29218 0.597785 -0.235188
-0.846498 -0.506141 -0.0775219
-0.361273 0.669261 -0.249475
-0.859165 -0.160857 -0.216481
-0.307375 -0.671517 -0.249477
-0.682397 0.354215 0.249054
-0.0254703 0.887831 -0.207727
-0.609316 -0.49848 -0.246898
-0.535833 -0.80262 0.126882
-0.831008 -0.46104 0.148224
-0.881106 0.406235 -0.115972
-0.308338 -0.882538 0.166654
0.925558 -0.291439 0.117162
-0.319063 -0.794723 0.225712
-0.311624 -0.42073 -0.1066
-0.695135 0.716564 0.0210306
0.386764 -0.533282 0.232829
-0.340989 0.392303 0.0983524
-0.028648 0.644223 -0.226856
-0.395169 0.675976 0.247402
-0.268302 0.470473 0.138881
-0.695739 -0.559445 -0.204702
-0.189557 0.899086 -0.183547
-0.722435 0.52327 -0.204782
-0.761602 0.357941 -0.232092
-0.620509 -0.781858 0.0237204
-0.437939 -0.839711 0.152906
-0.531613 0.820915 -0.100672
-0.218727 0.726527 0.249567
-0.539993 -0.653525 0.229921
-0.459702 -0.302926 0.150442
-0.748232 0.470337 0.210412
-0.476795 0.152464 -0.0181267
-0.523495 0.476677 -0.246328
-0.00795111 -0.696097 0.244009
-0.818686 -0.2818 0.220972
-0.596756 0.691969 0.187837
-0.492706 -0.373083 -0.21244
-0.552717 0.178506 0.184047
-0.0922366 0.572539 -0.18344
-0.756328 0.614373 -0.109046
-0.699394 -0.0382779 -0.245203
-0.43478 -0.431109 0.208644
-0.591039 0.593627 0.233795
-0.622246 0.437046 0.249457
-0.479386 -0.144585 0.015348
-0.60681 -0.0769806 -0.208568
-0.849984 0.44548 0.135334
-0.527899 0.0738481 -0.124764
0.249123 -0.966455 -0.0157273
-0.954386 0.124624 -0.129491
-0.0950709 -0.767026 -0.24884
-0.5432 0.500757 0.249492
-0.944262 -0.324042 -0.0115054
-0.252065 0.941868 -0.106043
-0.974909 -0.190434 0.0555603
-0.0694586 0.962479 -0.125505
-0.890424 -0.251739 -0.177461
-0.217007 -0.865332 0.20467
-0.421339 -0.761204 0.218852
-0.532591 -0.65503 -0.231422
-0.772435 -0.56578 0.137646
-0.622559 0.751932 0.10532
-0.882493 0.297419 0.170763
-0.39839 -0.63877 0.249823
-0.404963 0.293528 -0.0147977
-0.0619374 -0.569587 -0.176752
-0.0724926 -0.903497 -0.194395
-0.138829 0.660258 -0.238372
-0.433819 0.890389 0.0632167
-0.197388 0.462715 0.0385674
-0.0850187 -0.518527 0.110457
-0.557121 -0.172328 0.185921
-0.62877 -0.408714 0.249983
-0.401799 0.574756 -0.245288
-0.982256 0.180061 0.0152988
