-0.440448 -0.0595956 0.118384
-0.167281 0.749637 -0.337317
0.298651 -0.326013 0.247484
-0.351503 0.511866 -0.354166
0.190266 -1.02169 -0.150851
0.230838 0.308051 -0.48132
0.230447 -0.520079 -0.367446
0.428507 0.162768 -0.24684
0.355966 -0.603019 0.205574
-0.0373306 0.593091 0.623366
0.549916 0.506448 0.066786
-0.208093 -0.808817 0.194866
-0.180663 -0.261578 0.376312
0.44256 -0.0976003 0.00462818
0.329293 -0.406108 -0.353954
0.0930125 0.507303 -0.499229
-0.0165122 0.189665 0.706029
-0.190464 -0.571998 0.369609
-0.497212 0.276565 0.403489
-0.337636 -0.578437 0.266474
-0.314932 0.146955 0.585917
-0.496029 0.0130072 0.0895823
-0.545892 0.284156 0.0359687
-0.391392 0.629016 -0.23272
-0.214139 -0.222956 0.370356
0.0052691 -0.446235 -0.642687
-0.520594 0.608154 0.270941
0.0238279 0.210437 -0.615409
0.332585 -0.131757 -0.411876
-0.34777 -0.0826751 0.424329
0.535568 -0.0573149 0.0759694
-0.221577 0.306502 -0.508025
0.270947 -0.495519 0.397456
-0.440256 0.282319 0.489305
0.147179 0.898875 -0.0119192
0.195956 0.475758 -0.490552
0.231336 -0.814897 -0.117082
-0.0987268 0.871478 0.350203
-0.453127 0.384469 -0.196182
0.454451 0.6498 -0.0883796
0.140806 0.68335 0.577892
0.325678 -0.723674 0.0592791
0.0145592 0.87668 -0.181576
0.151873 0.897985 0.199622
-0.36537 0.363894 -0.359552
-0.00976155 -0.491855 0.484852
-0.525066 0.280115 -0.0266563
0.291664 -0.425876 -0.10246
0.226917 -0.303059 0.376852
0.335592 -0.434845 0.210022
0.322996 -0.754177 -0.00769985
0.110142 -0.605774 -0.216068
0.365659 0.530875 -0.346755
-0.390216 0.340173 0.544133
-0.367762 -0.691255 0.0280296
-0.122689 0.880077 0.300417
0.355577 0.705877 -0.224126
0.19513 -0.536495 -0.310956
0.207853 0.385871 0.671667
0.262668 -0.473831 -0.241451
-0.391139 -0.27456 -0.104958
-0.291366 -0.481631 -0.248726
0.220476 -0.305285 -0.523383
-0.321814 -0.425237 -0.183829
-0.154947 0.564485 -0.464271
0.0173245 -0.218754 -0.647012
-0.0393419 0.18799 -0.593847
0.043084 0.521229 -0.49594
-0.245123 0.805612 -0.208861
-0.0220361 0.917027 0.122438
-0.197818 0.651798 -0.40968
-0.467603 0.0918804 -0.101418
0.362198 -0.24306 -0.321708
-0.0648033 0.178952 0.696644
-0.229311 0.264721 0.659023
-0.238873 -1.00537 0.0316997
0.306098 0.0244702 0.539838
-0.336851 0.578041 0.490599
0.255258 -0.657983 0.290216
0.0732576 -0.572326 -0.360271
-0.427457 0.167756 0.493307
-0.192186 -0.688249 -0.139174
-0.308332 -0.570142 0.308776
0.271603 0.459244 0.62611
-0.274551 -0.691737 0.205247
0.560481 0.456518 0.0860813
-0.145673 -0.0295619 0.605719
-0.317053 -0.768685 0.0313613
0.38089 0.366267 -0.352807
0.28498 0.379589 0.638679
-0.469159 0.0237305 0.0241608
0.339474 0.679399 0.473447
0.169476 -1.0404 0.149426
-0.559762 0.0465455 0.214988
-0.399529 -0.177355 -0.186682
0.103357 0.893125 -0.104348
-0.222063 0.762685 -0.294568
0.350725 -0.45745 0.0479976
0.412823 -0.108291 0.231642
0.251147 -0.289375 -0.487278
0.0940501 0.254473 0.706133
-0.102493 0.897072 -0.0960057
0.18096 -0.276114 -0.548993
0.284186 0.39368 -0.47309
-0.318648 0.813762 0.121775
0.393144 0.279406 -0.328662
-0.471655 0.293725 0.4427
0.200038 -0.574965 -0.157016
0.488818 0.0889884 -0.0296203
-0.0747255 0.267557 -0.520111
0.334086 -0.659998 -0.0129938
-0.350532 -0.0968613 -0.397696
-0.243155 -0.9631 -0.169354
-0.335323 0.250096 0.589741
0.342033 -0.269863 0.179533
0.437639 0.284195 0.515793
0.461941 0.136863 0.412178
-0.523178 0.430582 -0.04299
-0.109519 0.839297 0.42874
-0.45464 0.634039 -0.0289748
0.0485949 -0.567001 -0.527531
0.463216 0.0153428 -0.0128317
0.358202 -0.322088 -0.290222
0.0156905 -0.836561 -0.180942
0.0183794 0.234138 -0.566937
0.0308912 -0.884624 -0.174131
0.133175 -0.334376 -0.584662
-0.182427 0.278359 -0.494795
0.0602866 0.904078 0.259992
-0.494098 0.0760137 0.110674
-0.354887 -0.538314 0.105842
-0.312352 0.0884244 -0.40871
-0.36746 -0.0369085 -0.389684
-0.340274 -0.498578 0.0795562
0.0712191 0.83573 -0.257544
-0.361678 -0.52991 0.168585
0.0620726 0.886149 0.335212
0.281929 -0.474029 -0.0855515
0.360382 -0.557574 0.224102
-0.100654 -0.540459 0.432421
-0.0757662 0.89236 0.282461
0.566615 0.402033 0.169848
-0.378445 -0.275675 -0.191673
0.352995 0.577756 0.534523
0.257759 0.135685 0.635495
0.511035 0.120947 0.240423
0.250254 -0.705455 -0.107491
0.409051 -0.0993854 -0.223061
0.171705 -0.483482 -0.530423
-0.0798627 -0.00963559 -0.632262
0.0234514 -0.635288 -0.229699
-0.33138 -0.394298 -0.348104
0.469129 0.0445769 -0.0559547
-0.404372 -0.0139463 0.386971
-0.315282 0.788361 0.342105
0.0913934 -0.988918 -0.179247
-0.0782015 0.114139 -0.543545
0.328307 -0.310699 0.205233
0.214103 0.869559 -0.0648869
-0.189952 0.346284 -0.5108
0.079485 0.719426 -0.397017
0.443466 -0.138001 0.125955
0.529871 0.436017 -0.0393245
0.418414 0.631032 -0.191629
-0.105661 -0.226475 -0.637159
0.0848017 0.86864 0.377231
0.542549 0.512756 0.246849
-0.335858 -0.393276 -0.0347028
-0.283538 -0.450154 -0.434001
-0.348281 0.117386 0.539633
0.184524 -0.765609 -0.133803
0.377061 0.213965 0.564565
-0.379119 0.11432 -0.31478
-0.380851 -0.222445 -0.262588
-0.279372 0.721776 0.445548
-0.290904 0.219274 -0.440135
-0.0635076 0.0577119 -0.626599
-0.484351 0.141723 -0.084432
0.43794 0.215435 -0.233657
0.489922 3.29487e-05 0.0686226
0.210725 0.727989 0.522792
0.0884258 0.646957 0.605608
0.175595 0.83684 -0.221564
-0.0404985 -0.584924 -0.298828
0.381737 0.767476 0.214937
-0.216236 -0.537434 -0.316885
-0.326387 -0.697634 0.119174
0.514745 0.2359 -0.059422
-0.0974596 -0.110606 -0.59388
0.387706 -0.285603 -0.0839233
-0.43368 0.677237 -0.002174
0.00405393 -0.291504 0.459982
0.340895 -0.510948 0.283054
0.222428 -0.780565 0.197179
0.570247 0.00964479 0.159159
0.0455291 0.575164 -0.480165
-0.498136 0.128058 0.223878
0.0751498 -0.00714915 0.629327
-0.446496 -0.0422211 -0.0548561
0.0282932 0.67671 -0.429135
0.344692 -0.250826 -0.376385
-0.0769665 -0.680617 -0.211783
-0.114059 -0.961037 -0.204608
-0.529094 0.228089 -0.00340628
-0.31433 0.515706 -0.389452
-0.261928 0.837406 0.280538
-0.170894 0.862556 0.328616
0.272206 -0.52275 -0.094557
0.348407 -0.235675 0.102282
0.221823 0.725897 -0.343946
0.229131 -0.62663 0.322335
-0.278685 -0.457764 -0.135098
-0.421087 0.324471 0.508012
-0.269873 0.840778 0.1339
0.21804 -0.977272 -0.133816
-0.464383 0.117882 0.375978
0.388351 0.0564237 0.473196
-0.413291 0.0183823 -0.314351
0.0267721 0.912325 0.216118
-0.462367 0.480802 -0.152929
0.343779 -0.292262 0.0955715
-0.544426 0.553924 0.25727
-0.0785874 -0.364797 -0.611433
-0.359468 -0.244096 -0.329722
-0.479291 0.581113 -0.0398978
-0.0423575 -0.211122 -0.658147
0.237801 -0.135172 -0.520819
-0.524076 0.0160497 0.145497
-0.180972 0.253437 0.680885
0.291097 0.80783 -0.140538
0.317909 -0.257429 -0.428751
-0.0887437 0.226916 0.71092
-0.15469 -0.602474 0.348666
0.0297116 -0.574156 -0.316578
-0.0665879 -0.0595725 -0.641998
0.227169 0.686799 0.547012
0.222768 -0.512387 0.430688
0.0288259 -0.117651 -0.627422
0.529315 0.401993 0.361542
0.438553 -0.192395 -0.0304497
-0.379454 0.409361 0.535064
0.174521 -0.37988 -0.545129
0.23187 0.377435 -0.498576
0.0458104 0.329293 0.70494
0.00128795 -0.00102519 0.635897
-0.196745 -0.74376 -0.141308
0.182917 -0.615389 0.337186
-0.473308 0.669046 0.0881657
0.206892 0.651739 0.576347
0.123406 -0.741514 0.260124
0.335261 0.80935 0.213385
-0.527412 0.575602 0.0581829
0.197189 -0.899685 0.123979
-0.146155 0.631508 -0.437124
0.248628 -0.814647 0.0902396
0.0756011 0.378231 0.696027
0.371985 0.264267 -0.377476
0.545403 0.207062 0.228125
0.35261 -0.675466 0.0775897
-0.535424 -0.026511 0.173378
-0.10258 0.138706 0.678722
0.383731 -0.00892521 0.434021
0.35174 -0.542546 0.02131
0.225154 -0.187206 -0.507923
-0.214758 0.459414 -0.467644
-0.393252 0.152624 -0.284049
0.391523 -0.172571 -0.2586
0.421229 -0.147921 -0.121727
-0.0228206 -0.556858 -0.5679
0.276463 -0.487838 -0.359711
0.275446 -0.290192 0.277339
0.246648 0.506131 0.6215
-0.41444 -0.0185237 0.337797
-0.540534 0.515458 0.0220916
0.299908 0.208402 -0.432824
-0.364774 -0.152222 0.288322
0.270135 -0.168734 0.435503
0.116742 0.210546 0.693388
-0.213779 -0.964862 0.0909482
0.359927 0.76727 0.309128
-0.173582 -0.388353 0.424873
-0.114508 -0.0685632 0.59409
0.472938 0.650025 -0.0291491
-0.438655 -0.0402452 -0.182123
0.430341 0.31148 -0.254297
-0.111365 -0.637073 -0.210853
-0.26368 0.843707 0.187431
0.558452 -0.100027 0.177818
-0.473434 -0.156967 0.138399
-0.38321 0.457442 -0.308971
-0.352078 0.748268 0.348521
-0.417768 0.726891 0.278096
0.135785 0.0293735 -0.555112
0.450264 -0.0203609 0.260106
-0.277124 -0.505361 -0.303408
0.180119 -0.940359 -0.144185
0.296757 0.792583 0.367074
0.0964729 0.379034 -0.545535
0.0220075 0.413511 0.689971
-0.0311251 0.0389501 -0.71551
0.165238 0.479808 0.659446
0.15122 -0.0175121 -0.556412
0.511265 0.448989 -0.0927184
0.40502 -0.148978 -0.211813
-0.217607 0.487357 0.604698
-0.347698 0.0243774 0.490037
-0.0964206 -0.553025 -0.585126
-0.149938 -0.666355 0.290907
-0.461415 0.286761 -0.172558
-0.20127 0.834675 -0.193742
-0.47994 0.665132 0.250714
0.256081 -0.257617 0.311422
-0.248139 -0.374175 -0.500463
0.562313 0.449179 0.198729
-0.229098 0.862541 0.0951939
0.222728 -0.879145 0.0868349
-0.39184 0.333512 -0.320253
0.550715 0.356795 0.016764
-0.365096 0.733974 -0.132027
-0.223548 -0.117848 -0.536423
-0.310639 0.198598 0.605274
-0.495587 -0.0593609 0.270842
0.276999 -0.756818 -0.0901569
0.342924 0.788253 -0.0763571
-0.421074 0.551033 -0.222031
0.335353 0.599458 -0.352176
0.080609 0.115474 0.674099
-0.226386 0.845197 0.321092
0.563946 0.354641 0.243092
-0.517194 0.137036 0.0745416
0.198742 0.886231 0.0570722
-0.208022 -0.480784 0.413995
-0.359552 -0.196977 -0.347298
0.397422 0.740206 0.273522
0.0316396 0.716417 0.56917
-0.282664 0.520623 0.559365
-0.156183 -0.562512 -0.256266
-0.454086 0.01624 -0.142069
-0.0371657 0.879351 0.352843
-0.327524 -0.325691 0.111355
0.43547 0.706002 0.0110052
-0.323787 -0.412459 0.195582
-0.283637 -0.239155 0.278937
0.443019 0.0128935 -0.20566
0.0764801 -0.0327666 -0.689589
-0.338482 0.643391 0.451944
0.377977 -0.215316 -0.2816
0.376768 -0.314307 -0.141167
0.589605 -0.0516261 0.22952
-0.0601544 0.805077 0.492101
0.23255 -0.509259 -0.270401
-0.0229945 -0.40901 0.47173
0.549034 0.45733 0.0222707
-0.0841993 -0.114374 0.569798
0.567475 0.352461 0.119412
0.490585 0.332434 0.432102
0.362267 0.319563 0.594441
-0.240666 -0.344068 0.310831
-0.390638 -0.205359 0.153983
0.192679 -0.496908 -0.486275
-0.126115 -0.424575 0.460028
0.442231 0.559094 0.432331
-0.354904 0.224228 -0.379702
-0.242531 -0.638897 -0.100861
0.413185 0.256939 -0.282154
0.45775 0.376669 0.488906
0.0326398 0.918383 0.0996439
0.302959 -0.351759 -0.434404
-0.556377 0.28428 0.106247
0.258591 0.805101 -0.202097
0.0857751 0.170714 0.691431
0.42142 0.083783 0.448347
-0.514528 0.578813 0.317436
0.340141 -0.402097 -0.305643
0.411756 -0.207071 -0.0846053
0.0218675 -0.548409 -0.588271
-0.252904 0.832634 -0.135495
-0.529302 0.60327 0.131311
-0.308971 -0.0669971 -0.45924
-0.493966 0.151856 0.339572
0.358554 -0.203556 0.0603151
0.419273 0.543001 -0.24839
-0.0818178 0.705069 0.566705
0.161423 0.724604 -0.371883
0.112256 -0.554391 -0.510649
-0.112477 -1.07085 0.188519
-0.262401 0.178655 0.632339
0.210514 -0.0515983 0.584756
-0.213928 0.402467 -0.476928
0.48703 -0.124797 0.158631
0.465394 0.145628 -0.155997
0.136014 -0.39694 -0.580036
0.0203862 0.509186 0.656791
-0.259765 -0.140447 0.441244
-0.336506 -0.719728 0.0560473
-0.413473 0.588676 0.418541
-0.0129551 -0.83833 0.213176
0.201804 0.691373 -0.387968
-0.145783 -0.274289 0.414504
-0.0211432 -0.594072 0.381142
0.174469 0.893665 0.109009
-0.312642 0.172883 -0.418721
0.544232 0.0518019 0.211228
0.460935 0.0546772 0.343861
0.426024 -0.0974013 -0.117608
-0.454506 -0.0062738 -0.0967297
-0.27143 0.124151 0.60378
0.2981 -0.467697 -0.3146
-0.160365 0.889184 0.128217
0.411003 0.242797 0.542529
-0.460671 -0.0142836 0.0585706
0.0569947 -0.0228856 -0.73886
0.449788 0.246268 0.477477
-0.487021 0.518523 -0.080824
0.436801 -0.217336 0.0187678
0.333199 0.016057 -0.432355
0.308444 0.501306 0.59142
-0.538153 0.248234 0.315723
0.193716 0.850421 -0.170654
0.298651 -0.673769 0.206535
0.302521 -0.0832399 -0.44807
-0.236418 -0.508795 -0.12509
-0.0360389 -1.00818 -0.203809
-0.326349 -0.799283 -0.0189483
-0.264774 -0.653621 0.261326
-0.308872 -0.0847915 0.459449
0.176806 0.795631 -0.281192
-0.0478423 0.362733 -0.54425
0.31993 -0.627149 0.240297
0.253582 0.44677 -0.464927
0.565735 0.301585 0.188806
-0.0180313 0.258464 -0.539411
-0.187633 -0.485956 -0.544495
-0.235392 -0.703209 0.242992
0.152127 0.547685 0.637369
0.149386 0.519609 -0.491377
-0.369267 -0.632441 0.0425553
0.358708 -0.507876 0.184708
0.387081 0.745471 -0.0848561
0.254051 0.25667 -0.47751
-0.210362 0.204541 0.667688
-0.0700257 0.170034 -0.511065
0.121506 -0.45214 -0.604496
-0.103258 0.514409 0.640302
-0.478364 0.23668 0.432371
-0.375677 -0.576626 0.134349
0.454636 -0.0298661 0.0221869
0.402103 0.704834 -0.13477
-0.328281 -0.277741 0.0861533
-0.448717 -0.020614 0.263381
-0.139774 -0.174802 0.49576
0.16105 -0.21053 -0.594196
0.453227 0.367595 -0.224499
-0.276375 0.660138 -0.356185
0.146051 0.901443 0.15085
0.1333 0.694834 -0.409247
-0.524371 0.377807 -0.0570516
0.252935 -0.508569 -0.321114
0.290428 -0.412527 0.297232
0.217874 0.85802 -0.11326
0.238561 -0.911018 0.0207383
0.105731 0.481018 0.668366
0.202309 0.24601 -0.494599
0.52536 0.100648 0.0772157
-0.325738 -0.389788 0.070263
-0.241284 -0.930144 0.0444807
0.431855 0.695785 0.296646
0.523134 0.385867 -0.0578814
0.312286 -0.427981 0.253452
0.32091 -0.228365 0.224799
-0.244942 -1.05227 0.0105741
0.394928 0.103183 0.493397
-0.168778 0.444464 -0.495383
-0.382816 -0.0634796 0.394637
-0.271693 -0.534184 -0.064483
-0.303176 0.33623 0.607842
0.0348312 -0.902573 0.20801
0.484435 0.479577 -0.141978
-0.461571 0.0122339 -0.0481856
0.425447 0.185862 0.491841
0.0115087 0.17489 -0.658273
0.335633 -0.167344 0.317722
0.330909 0.18149 -0.389807
-0.0394776 0.236385 0.718401
-0.263149 -0.88741 0.0285061
0.407016 0.744829 -0.00048335
-0.219548 -0.112308 0.506624
0.237203 -0.233275 -0.520677
0.112021 0.280238 -0.505105
0.317448 0.642869 0.524989
-0.109683 0.070516 -0.531592
0.482323 0.565247 -0.119582
-0.554287 -0.0562259 0.294776
0.341686 0.123705 0.564646
0.424342 0.406483 0.530883
-0.181294 -0.313681 -0.547011
-0.516681 0.19558 0.335732
-0.408365 -0.119326 -0.246118
0.394544 -0.170881 0.0692408
-0.0557912 0.834482 0.449757
-0.508202 0.23858 0.372496
0.293974 0.834822 0.237309
0.465006 0.682434 0.080612
-0.0545838 0.571461 -0.479701
0.186475 -0.5204 -0.216994
-0.090516 -0.564867 -0.524455
0.519582 -0.131612 0.0852662
0.0507085 0.466555 0.672721
0.190437 0.00300886 -0.525603
-0.181298 0.0730967 0.633196
-0.201937 0.567803 -0.44714
0.569444 -0.0403001 0.174765
-0.153982 -0.906613 0.192571
-0.538951 0.0619053 0.159499
-0.236769 -0.513211 0.388855
-0.248577 0.607059 0.550298
0.203309 -0.703919 -0.124503
-0.0812121 0.0610812 -0.580509
-0.370282 -0.665749 0.0805645
-0.062696 -0.837365 0.21052
0.195944 -0.404263 0.439433
-0.19619 -0.966029 -0.196313
-0.328382 -0.135472 -0.422284
-0.351848 0.486045 0.522839
0.0913908 -0.46755 0.487705
0.343088 -0.702446 0.0116863
-0.0587328 0.0196453 0.641048
-0.104356 0.320063 -0.532481
0.493683 0.65761 0.229306
0.0913331 -0.0536997 0.609124
-0.404005 0.747862 0.207677
-0.355019 0.769083 -0.0370603
-0.165012 -0.453774 0.446397
-0.339635 -0.239695 -0.376211
0.246616 -0.390904 0.366326
-0.288608 -0.455113 -0.0395629
-0.12537 0.197249 -0.468163
-0.233079 0.671534 -0.378026
0.527023 0.299938 -0.0576158
-0.280607 -0.302084 0.259496
0.266804 -0.0848416 -0.489724
0.426292 0.0151475 0.379882
0.378401 0.469328 -0.337353
-0.156186 -0.619656 -0.184355
0.421583 0.729687 0.202669
0.464902 0.688136 0.18448
0.26183 -0.741521 0.173625
0.422573 0.58888 -0.221867
0.461569 0.612859 -0.122182
0.314745 0.353696 -0.457589
-0.379459 -0.16452 -0.313554
-0.35133 0.779599 0.0257738
-0.0396847 -0.530751 -0.608132
-0.392071 0.745011 0.0571026
0.364642 0.213476 -0.367171
-0.161394 -0.998683 0.181173
-0.0416669 0.861365 0.399973
0.327215 -0.567101 -0.0251182
0.311509 0.267673 0.639372
0.490408 0.287366 -0.148199
0.357315 0.739675 -0.169471
-0.165805 -1.02208 -0.213312
-0.109103 0.902635 0.159425
0.0113715 -0.00418401 -0.756477
-0.338781 0.407621 -0.390649
-0.0334662 0.61772 -0.460192
-0.558326 0.290292 0.263919
0.0772998 -0.569441 -0.411006
0.129377 -0.339033 0.474527
-0.54974 0.49419 0.253774
-0.180264 -0.418873 -0.561152
0.353191 -0.467872 0.156173
0.441579 0.534754 -0.204688
0.0505184 0.269991 -0.534479
0.534668 0.346071 -0.0290928
0.00978428 -0.495746 -0.631253
-0.135461 0.859681 -0.188071
0.0902705 -0.912654 0.213202
0.393298 0.763083 0.0717006
-0.48311 0.354686 -0.133098
0.0330925 0.668206 0.594472
0.33816 0.809149 0.156735
0.135809 -0.793945 -0.14757
-0.384797 0.759519 0.261221
-0.396423 -0.22638 -0.149792
0.363136 -0.108267 0.362494
-0.459453 -0.0924101 0.151362
-0.4552 0.102206 -0.148462
-0.549847 0.234243 0.147726
0.311058 -0.406166 -0.0429511
-0.363236 0.779194 0.097357
0.45632 0.478773 -0.190951
-0.219566 -0.0371381 -0.516046
0.106179 -1.06979 0.205363
0.126291 -0.668217 -0.187665
0.411816 0.583147 0.462731
0.342821 0.464228 0.575836
0.0726731 -0.168764 0.549557
0.357735 -0.336815 -0.0833758
-0.372471 0.701995 0.372315
-0.107827 -0.0470173 -0.612468
-0.169845 0.217901 -0.482646
-0.331244 0.399506 0.574594
-0.396592 -0.0358388 -0.336419
0.285504 -0.398546 -0.444409
-0.487842 0.408447 -0.114334
-0.426438 0.669708 -0.0768164
-0.409367 -0.187358 -0.0594668
-0.0959403 0.776008 0.518465
0.516905 0.639173 0.187451
0.3541 -0.186529 0.200364
0.549224 0.442386 0.260324
0.241292 -1.03113 -0.0228503
0.172823 0.876755 -0.106376
-0.332349 -0.445754 0.0787535
0.54445 0.19568 0.178896
0.361681 -0.526524 0.115652
0.551883 0.276193 0.00961285
0.582652 0.0846934 0.189108
-0.535315 0.176133 0.0987931
0.0965778 -0.20801 -0.645258
-0.0318731 0.911986 0.197503
-0.00211145 0.55483 -0.488704
0.0993952 -0.140487 -0.61897
0.448983 0.180718 -0.198864
0.50931 0.162336 0.335293
-0.191549 -0.994635 0.134162
0.404019 0.3252 0.562577
0.339779 0.774836 -0.134487
0.320273 -0.619395 -0.0415549
0.52727 0.613565 0.238758
-0.45071 0.33628 0.464843
-0.254907 0.267619 -0.474203
0.468948 0.496744 0.450288
0.391291 0.686581 -0.184119
-0.504742 0.477231 0.38185
-0.337778 -0.593459 0.01504
-0.110703 0.0874756 0.654134
-0.167719 -0.781938 -0.153396
-0.175494 0.39545 0.651402
0.165745 0.376712 -0.528917
0.424596 -0.0272318 0.350928
-0.0381191 -0.414163 -0.642
0.352725 -0.416839 0.0831725
0.345674 -0.0594004 -0.404384
0.257366 -0.0581727 0.5538
0.472567 0.284078 0.453859
-0.311862 -0.423897 -0.390347
-0.0288244 0.706472 -0.407064
-0.398339 0.221624 -0.28764
0.246763 0.413679 0.651909
0.331239 -0.294721 -0.397092
-0.221945 -0.826872 -0.147759
0.222573 -0.352862 0.392911
-0.00204268 0.918461 0.0590696
-0.426872 0.682993 0.330433
0.0610605 0.468393 -0.514112
0.226102 -0.590836 0.35801
-0.262333 0.768179 -0.251152
-0.317683 -0.645198 0.201435
-0.559759 0.374258 0.100999
-0.537434 -0.0532129 0.232503
0.240239 -0.100932 0.535086
-0.36648 0.426338 -0.351792
-0.377134 -0.149409 0.227283
0.377367 0.0377534 -0.384042
0.466058 0.0924204 -0.159106
-0.304041 0.10148 0.565181
-0.14236 0.795524 0.482805
-0.362467 0.668965 -0.24723
0.381298 -0.144426 -0.306808
0.492821 0.207927 -0.0997646
-0.460293 0.630287 0.343119
-0.302319 -0.40147 0.249147
-0.512875 0.0102223 0.273016
-0.368281 -0.124258 0.335123
-0.0272934 0.664779 -0.436823
-0.524017 0.200411 0.27701
0.499739 0.510752 -0.106232
-0.283875 -0.459774 -0.188217
0.156319 -0.62248 -0.176566
-0.250981 -0.323434 -0.509015
0.0546476 -0.539173 0.439284
-0.0951073 -0.483845 0.480573
0.248112 0.827341 -0.158697
0.266446 0.759791 -0.264892
-0.0920658 -0.795179 0.223457
-0.341736 -0.285566 -0.353415
-0.513025 0.345837 0.369281
-0.0403774 -0.0743203 -0.737173
0.372736 0.773421 -0.0363588
-0.168341 -0.529266 -0.477869
0.423807 -0.156676 -0.0634546
0.193511 -0.870481 -0.135062
-0.173449 0.845163 0.380649
-0.179614 -0.145121 0.50301
-0.450493 0.0582035 -0.190038
-0.223215 0.863016 -0.0516838
-0.445357 0.541758 0.428541
-0.0601278 -0.0157017 -0.682966
-0.22137 0.700103 0.514468
0.145004 0.9024 0.0655507
0.073438 0.0450394 -0.656359
0.325291 0.345365 0.622483
0.510004 0.27412 -0.0992999
0.473676 -0.176235 0.0478227
0.567277 0.346599 0.168478
0.144696 0.650275 -0.437717
0.503647 0.28383 0.407025
0.312438 -0.162201 0.369502
-0.347024 -0.482578 0.127156
0.505574 0.64535 0.0864868
-0.130021 -0.25546 -0.599392
0.139772 -0.644143 0.32368
0.530942 0.146045 0.161719
-0.469423 0.0636831 -0.0571735
-0.559828 0.409196 0.0624927
-0.379606 -0.307676 -0.147031
0.173994 -0.545611 -0.362412
0.2807 -0.593678 0.337973
0.405739 -0.0895661 0.31665
0.0131992 -0.174793 0.5479
0.35371 0.80296 0.0673077
-0.0234218 -0.651057 0.319176
-0.514588 0.228338 -0.0521849
-0.335802 0.5633 -0.353181
-0.411839 -0.130651 -0.196281
-0.426092 0.377083 -0.242876
-0.230121 0.716202 -0.343634
-0.390763 0.555337 0.458968
0.295884 -0.451971 -0.390688
0.310567 0.0595654 -0.438472
-0.0310754 -0.719536 0.258941
0.144422 -0.028957 0.611292
-0.427227 -0.221594 0.118316
-0.540595 0.393355 0.316643
0.251586 0.859753 -0.0297225
-0.533259 0.187999 0.155318
-0.313381 -0.292353 0.207204
0.275293 -0.917414 -0.0939894
0.153048 -0.156716 -0.593495
0.0187782 -0.562448 -0.474811
-0.553401 0.523347 0.14316
-0.0440715 -0.727314 -0.212905
-0.521149 0.174646 0.211662
-0.361565 -0.649814 0.132969
0.398778 -0.265599 -0.142873
-0.0905587 0.00201237 -0.583844
0.232427 -0.987848 -0.00112932
-0.561445 0.4318 0.119302
-0.407199 0.238052 0.52958
0.327825 -0.351977 -0.391075
-0.205511 0.874012 0.0489848
-0.337543 -0.402116 0.128098
-0.355888 -0.143391 -0.373308
0.005 -0.533906 0.444788
0.558972 0.321549 0.0578951
-0.373681 0.531956 -0.313568
-0.357927 -0.333544 -0.23266
0.174324 -0.940151 0.146192
0.124508 -0.807281 0.235359
-0.334377 -0.337967 -0.357444
0.346662 -0.35896 -0.131088
0.478257 0.426187 -0.172787
-0.307501 -0.0121643 -0.466855
0.371409 -0.573792 0.102652
-0.00889907 0.639849 0.606798
0.120329 -0.565457 -0.385649
0.166475 -0.51676 0.437618
-0.283621 -0.343565 -0.467802
0.218434 -0.44981 0.425691
-0.0844951 -0.31718 0.462084
-0.0415452 -0.889791 0.202062
-0.0277064 -0.677621 -0.225816
-0.0616751 -0.18452 0.51865
-0.540437 0.321179 0.326712
-0.420305 0.137441 -0.24177
0.254031 -0.857917 0.0337902
-0.525605 0.455874 0.337636
0.556967 0.0632931 0.0831231
0.29953 0.630797 -0.370862
-0.267753 0.237934 0.636869
0.0876854 0.237793 -0.495132
-0.524936 0.282017 0.355537
-0.247316 -0.84872 0.0903788
0.407688 0.115127 -0.313685
0.246107 0.688783 -0.366297
0.164366 0.291301 -0.479247
-0.313632 0.279923 -0.454311
0.090865 -1.01354 0.207257
-0.407421 -0.214656 -0.00682186
0.26698 -0.452392 -0.17811
0.430877 0.711317 0.24836
0.401412 0.492077 0.52012
-0.445222 0.234058 -0.198684
-0.126455 -0.634464 0.321922
-0.0083054 0.749113 0.548943
-0.422019 -0.105899 -0.0590036
0.423397 0.515057 0.48125
-0.406249 0.716852 0.0139103
-0.223557 0.0985674 0.618601
0.225904 0.875045 0.114504
-0.137719 0.229869 0.697308
0.264565 -0.896474 -0.0285156
0.165913 -0.0743666 0.589932
0.0637496 -0.22714 0.491968
-0.408356 0.737245 0.10998
0.192952 -0.16795 -0.540625
-0.384991 0.17431 0.534239
0.480362 -0.0749192 0.181259
-0.228237 -0.820454 0.150193
-0.19737 0.750891 0.491285
0.141651 -0.997633 0.203255
-0.339788 0.308873 -0.414162
0.552363 0.501094 0.116922
0.157533 0.455556 -0.513829
-0.16127 0.386192 -0.515998
0.536148 0.353559 0.345798
-0.205167 0.873912 -0.00304312
-0.473953 0.0638196 -0.00640941
0.252369 -0.382523 -0.480379
0.532407 0.176864 0.280564
0.528969 0.603576 0.0675446
0.468086 0.671654 0.0274136
0.552731 0.337221 0.288999
0.348878 -0.576106 0.27665
-0.163049 -0.525819 0.423846
-0.541356 0.236916 0.217506
0.455063 0.0611974 -0.210025
0.0906447 0.135908 -0.554681
0.320578 0.4268 0.600939
0.252012 0.860391 0.200621
0.378721 0.418666 -0.347411
-0.28188 0.834643 0.0860148
-0.0339138 0.862409 -0.213609
0.32263 -0.377808 0.215309
0.0859236 -0.363055 0.47428
0.50001 0.176235 -0.0617176
-0.0403304 0.417011 -0.536078
-0.235384 -0.444259 0.376831
-0.299341 0.584885 0.523163
-0.298319 -0.69946 0.160809
-0.170418 0.498104 0.624434
0.0856233 0.873165 -0.174127
0.114761 -0.0129316 -0.591371
0.263969 0.725946 -0.312636
0.487545 0.603751 -0.0700477
0.165306 0.812821 0.449205
-0.4389 -0.0503169 -0.130461
0.343619 -0.253995 0.0502094
0.295514 0.740754 0.448667
0.253532 -0.00276636 -0.486969
-0.298228 -0.509109 -0.024579
0.280128 -0.837169 -0.0070218
0.383651 0.647372 0.450653
0.167076 -0.561076 -0.196218
0.0228315 0.898367 0.293532
-0.560064 0.38259 0.14987
-0.40852 0.652705 0.376779
0.0847566 -0.899607 -0.162342
-0.0988029 -0.579895 -0.287989
-0.136687 -0.563863 0.392222
0.503709 0.650604 0.141355
-0.5152 0.530785 0.34541
-0.24814 0.854152 0.0328859
0.199636 0.102942 -0.490911
-0.146848 0.881109 -0.120586
0.564013 0.443211 0.138674
-0.280284 0.0709785 -0.45488
0.584766 0.074073 0.128398
-0.255541 -0.581718 -0.0796039
0.546238 0.290217 0.30341
0.00394239 0.304423 -0.543057
0.0676916 -0.167855 -0.65332
-0.217209 0.579997 0.579094
-0.43234 0.0186007 -0.262683
0.498942 0.453501 0.414926
0.0112853 -0.564996 -0.386918
-0.0104796 -0.563409 -0.433752
-0.19101 0.544542 0.603679
0.370344 0.643737 -0.273415
0.252415 0.344292 0.659402
0.213393 0.852776 0.338823
0.0719323 -0.727573 -0.199275
0.322788 0.302146 -0.448238
0.200109 -0.0621467 -0.539994
0.254887 -0.306407 0.323343
0.418656 0.49321 -0.260675
-0.0985368 -0.886727 0.196687
0.0600272 0.603699 0.62386
0.252703 0.553156 0.604348
0.135149 0.148889 -0.485969
0.340422 -0.0299384 0.470115
-0.543972 0.457447 0.286185
-0.0375653 -0.151467 0.555596
-0.160455 -0.80331 0.215458
-0.220188 0.0644496 -0.494529
-0.128095 0.89096 0.234952
0.432219 0.714647 0.0626449
0.171812 0.887247 0.254716
-0.423442 -0.15407 0.0854818
0.238944 0.646096 -0.405961
0.484966 0.233684 0.42041
0.0348824 -1.02104 -0.193732
-0.281977 0.0535111 0.562659
0.234018 -0.754588 -0.116658
-0.222092 0.230634 -0.492248
-0.47992 0.416509 0.416846
-0.050126 0.441968 0.671605
-0.0179695 -0.0608755 0.611785
-0.442467 -0.10962 0.0459485
-0.239488 -0.586804 0.343685
0.187546 0.236212 0.683343
0.22706 0.147166 -0.470682
0.134059 -0.253355 -0.590299
0.438466 0.712541 0.138875
-0.513604 0.514476 -0.0355695
0.15916 0.275728 0.695312
0.423164 -0.0355021 -0.26185
-0.304379 0.818717 0.0097535
-0.0634106 -0.379781 0.470756
-0.218828 0.156522 0.643853
0.1957 0.634106 -0.43361
0.0321969 -0.5947 0.37793
0.0958337 -0.612674 0.35808
0.314817 -0.689618 0.153679
0.467303 0.644935 0.328274
-0.508505 0.153612 0.271639
0.289915 -0.753765 0.0900273
0.261943 0.835778 -0.107531
-0.290266 -0.464655 0.315582
-0.156441 0.31175 -0.53141
0.533923 0.517351 -0.000904809
-0.27693 -0.521285 0.355858
-0.560186 0.333045 0.141886
-0.241802 -0.185988 -0.522878
0.232077 -0.47566 -0.455669
0.374932 0.780747 0.0192103
-0.155772 -0.167891 -0.594752
0.591759 0.00858721 0.242869
0.376751 -0.154529 0.147899
-0.345278 0.732606 -0.182256
0.137846 -0.0771965 -0.553859
0.530977 0.244179 0.32388
-0.250455 -0.482779 -0.462372
0.443692 -0.0712308 0.0469365
-0.175679 0.8134 0.447928
-0.0730458 0.786847 -0.313522
-0.0931978 0.905455 -0.0430953
0.312638 0.579521 0.565265
-0.32045 -0.481215 0.0311206
-0.312516 -0.357297 0.208698
0.438598 0.0916825 -0.257279
-0.5506 0.515684 0.0707662
-0.191158 -0.583891 -0.158392
0.508278 0.396673 -0.116863
0.369061 -0.558724 0.165254
0.242448 -0.602511 -0.115079
-0.278905 -0.356069 0.267358
0.394778 -0.0955685 -0.307821
-0.441058 0.515603 -0.189685
-0.558299 0.479191 0.105386
0.331283 -0.328198 0.0380564
-0.149356 -0.43558 -0.596091
-0.247055 -0.290776 0.298929
0.165797 0.72117 0.546116
0.334416 -0.445408 0.00307683
-0.279353 -0.631148 -0.0643291
0.557738 0.247447 0.197463
0.228689 0.874115 0.0173918
-0.398749 0.684741 -0.133222
0.347049 -0.345102 -0.344785
0.0428031 0.809863 0.491009
-0.21294 -0.355165 0.350969
0.399864 -0.201651 -0.207264
0.45467 0.416216 -0.216459
0.0577508 0.107746 -0.651327
0.108323 -0.562656 -0.253051
-0.03886 -0.880955 -0.184642
0.163555 -0.710174 0.276267
0.168252 -0.437551 -0.554251
-0.0835874 0.883681 -0.150847
-0.0731533 -0.691209 0.280468
0.15937 -0.5409 -0.258477
0.24922 -0.869371 -0.111379
-0.455027 0.153891 0.43566
-0.314994 -0.40055 0.0139181
0.368342 0.730272 0.371858
-0.123463 0.40595 0.666844
-0.451522 -0.0670511 0.0700273
0.19618 -0.963585 0.0895289
-0.542414 -0.0016689 0.226703
0.206159 0.0548208 -0.502371
-0.313263 -0.626355 -0.0278939
-0.438627 0.10573 -0.205895
-0.34839 0.193288 0.573573
0.304933 -0.276373 0.239623
-0.267923 -0.970484 -0.0283272
-0.340699 -0.404932 -0.13765
-0.192129 0.875821 -0.0948094
-0.0412161 0.0772433 -0.667809
-0.298065 0.747714 0.404165
-0.138138 0.021409 -0.537633
-0.0831598 0.863849 -0.202716
-0.149637 0.17926 0.683986
-0.218133 -0.238133 -0.546017
0.468196 0.0599335 -0.105014
0.481094 0.141728 -0.0953084
-0.11219 0.147482 -0.484977
0.239809 -0.432695 -0.478767
0.144978 0.425209 0.683355
0.389791 0.208625 -0.324797
0.21727 -1.0511 0.0337734
0.41701 -0.115262 -0.165723
0.519245 0.344628 0.392559
-0.244453 0.43668 0.606246
-0.0333124 0.293237 0.712766
0.261701 -1.02987 -0.0682309
-0.11565 -0.836047 0.206648
0.0290233 -0.72583 0.253899
0.096205 0.571028 -0.48439
-0.320893 0.63467 -0.331371
-0.301627 -0.183382 -0.447764
-0.329455 -0.0210775 0.483767
0.3209 -0.380653 -0.0853207
0.260762 0.846981 0.272018
-0.286103 0.4067 -0.435858
-0.0107001 -0.0581825 -0.777914
0.308224 -0.610347 0.294638
-0.485606 0.117823 0.300251
0.28777 -0.578416 -0.0732081
0.10485 -0.761586 -0.168108
-0.223713 -0.187607 0.404178
0.0562104 0.213189 0.706327
-0.266787 0.512318 -0.430981
0.195735 0.884959 0.162562
-0.0379291 -0.773696 0.234505
0.25482 0.0519515 -0.481214
-0.337935 0.444472 0.551356
-0.305606 -0.293501 -0.446951
-0.24379 0.627341 -0.402504
0.295488 0.21696 0.641928
0.155128 -0.582278 0.37735
0.0395436 0.0756275 -0.691165
0.246922 0.184278 0.651514
-0.168315 -0.857076 0.203546
0.381716 0.443097 0.548743
0.243734 -0.734727 0.22004
-0.450697 0.332308 -0.1993
0.297268 -0.782421 0.0245239
-0.166269 -0.907399 -0.184251
0.227316 -0.172958 0.467432
0.178448 -0.186102 0.495035
-0.0273293 0.523922 0.648575
0.434219 0.342373 0.525994
0.145375 -0.904914 -0.155874
0.193948 -0.00392447 0.604365
-0.488785 0.0814224 0.187997
-0.392659 -0.242895 0.0835159
-0.227796 -0.559659 -0.121739
-0.238999 0.536102 0.583916
-0.442832 0.684705 0.0496464
0.318289 0.814428 -0.0352592
0.180488 -0.753048 0.256967
-0.372605 0.519894 0.490998
-0.27801 -0.80951 0.0650322
0.437304 -0.109985 -0.0455172
-0.161666 -1.07164 0.176588
0.36282 -0.192181 -0.347323
-0.30288 0.635869 0.491988
0.470051 0.305232 -0.191644
0.331156 0.128856 -0.386917
-0.0982011 0.436761 -0.524292
0.282053 -0.439813 0.339432
-0.173892 -0.547018 -0.394481
-0.169695 0.695358 0.547995
-0.148558 0.45642 0.644027
-0.372401 -0.574033 0.216396
-0.33465 -0.196573 0.258483
-0.296448 -0.979234 -0.126734
-0.558041 0.464204 0.0491067
0.214643 -0.354974 -0.509707
0.432521 0.132391 0.454778
-0.349457 -0.233481 0.111547
0.528235 0.453607 0.352286
0.0791339 0.0981366 -0.605833
-0.0747993 0.39958 0.681386
0.0162669 0.0429782 -0.729795
-0.225566 0.792141 0.43105
-0.366571 -0.276263 -0.291194
0.216314 0.789471 0.450571
0.0198838 -1.02323 0.204024
0.194016 -0.835895 0.191677
0.00995583 -0.785598 -0.196144
0.468015 0.525258 -0.153389
0.240947 0.604886 0.589843
-0.0535014 -1.01938 0.199907
0.538693 0.472937 0.299312
0.312919 -0.395784 -0.141415
0.230592 -0.242202 0.370644
-0.00854244 -0.368174 -0.615124
-0.214572 -0.399448 -0.527649
0.26813 -0.169256 -0.49067
-0.539554 0.516125 0.301355
0.334845 -0.475926 0.248735
0.426972 0.44356 -0.257728
-0.20887 -0.349859 -0.523653
-0.0964276 -0.0173449 0.622504
0.467059 0.585517 0.394993
-0.351308 0.789181 0.225862
-0.10364 -0.864323 -0.177411
0.414323 -0.23435 -0.0431546
-0.0717953 -0.933315 0.195059
-0.506869 0.629425 0.0869474
-0.399573 0.461832 0.499585
-0.0431951 -0.827989 -0.188748
-0.512602 0.177038 -0.0164491
-0.330991 0.0665257 0.526028
0.0817656 0.913224 0.178659
-0.211972 0.517715 -0.459016
0.155275 -0.525302 -0.505293
-0.201988 -0.540138 -0.253323
-0.157422 0.891923 0.0480422
0.176448 -0.118093 -0.534568
-0.31359 0.811407 0.262291
-0.400019 0.0693964 -0.328746
0.313333 -0.398475 -0.400616
-0.0719794 0.728699 -0.383374
-0.529725 0.175876 0.0459664
0.343031 -0.281337 0.00854975
0.154034 -0.855276 0.222037
-0.338918 0.172876 -0.376945
-0.270153 -0.0376277 -0.492169
0.168662 -0.990597 0.153641
0.368764 0.789291 0.115704
-0.246692 -0.488568 -0.170385
-0.417714 0.0960112 -0.269245
-0.0175499 -0.57311 -0.343724
0.0203937 -0.684022 0.282071
-0.511169 0.558073 -0.00880253
0.310009 -0.438198 -0.270545
0.205189 -1.01104 0.0640621
0.369317 -0.630604 0.112922
0.0837033 -0.414727 0.477362
-0.286894 -0.478206 -0.392377
0.492976 -0.167152 0.130629
0.128188 0.777584 -0.323855
0.0192102 0.870188 0.384621
-0.132062 0.720903 -0.37964
0.559901 0.303705 0.253016
0.131123 -0.26976 0.472787
-0.502916 -0.0575399 0.143686
0.06119 0.200238 -0.575249
0.128355 -0.064251 -0.604644
0.429966 -0.066135 -0.0791465
0.0804073 -0.819955 -0.165453
-0.020285 0.83518 -0.258958
-0.116525 -0.966629 0.194681
-0.44856 0.59514 -0.12159
0.125042 0.197355 -0.474767
-0.217125 -1.02296 -0.195686
0.036287 -0.0714462 -0.756469
0.467415 0.24999 -0.186416
-0.367041 -0.0342979 0.432015
0.178887 -0.305056 0.44619
0.314684 -0.461194 0.296721
0.0325083 -0.338598 0.459529
-0.138462 -0.726026 0.25556
-0.21227 -0.534367 -0.16532
-0.294486 0.808753 -0.118341
0.168653 -0.903233 0.193451
-0.559784 0.467416 0.183647
-0.0473508 0.307949 -0.542778
-0.0611044 -0.301507 -0.634072
0.344716 0.063384 0.528835
-0.340475 0.466937 -0.375723
0.0788662 -0.551549 -0.580284
0.0735904 -0.120258 0.580026
0.1985 -0.222831 -0.557798
0.513176 0.327414 -0.102437
0.101872 0.909578 0.00743119
-0.449217 0.0779628 0.348819
-0.376465 -0.326714 -0.0968388
-0.0480023 -0.779792 -0.201083
-0.438444 0.176095 -0.2011
-0.280589 -0.91359 -0.0275105
-0.123843 -0.0577337 -0.564221
0.205936 -0.855268 0.145982
0.0358926 -0.0586108 0.6111
0.287024 -0.293702 -0.452983
-0.339211 0.0197264 -0.432243
0.124954 0.33528 -0.540771
-0.054563 0.899078 -0.109919
0.512469 0.122572 0.0323054
0.40086 0.0705294 -0.344809
0.536673 0.159409 0.105397
-0.482139 0.35988 0.410005
0.058814 0.320892 -0.541276
-0.46217 -0.108087 0.248531
0.0571069 -0.516851 -0.624626
-0.273359 0.455577 -0.431307
-0.562842 0.345531 0.191312
-0.114894 -0.910912 -0.189699
-0.153885 -0.213148 0.430957
0.185238 0.611303 0.604579
0.135933 -0.517535 -0.561924
-0.457628 0.154642 -0.155565
-0.375609 -0.306435 -0.0500239
-0.272031 -0.257431 -0.487824
-0.142616 -0.506518 -0.593866
-0.563904 0.343989 0.243909
-0.355356 -0.279106 0.0365609
-0.424639 -0.0841975 -0.208504
0.203566 -0.445844 -0.511636
-0.162324 -0.574905 -0.20746
0.0928061 0.78273 0.518734
0.0187932 0.412297 -0.534785
-0.42639 -0.20173 0.0724284
0.40346 0.416693 -0.304556
0.254867 -1.0121 -0.116491
0.562082 0.290504 0.126894
0.145887 0.78891 0.490399
0.56077 0.251714 0.0662679
-0.245861 -0.743241 0.193822
0.50426 0.637353 0.0282473
0.371585 0.161737 0.551103
0.386555 0.27737 0.57523
-0.279875 -0.792095 -0.100601
-0.316305 -0.232008 -0.420955
0.50311 0.54807 0.369829
-0.398476 0.657996 -0.175
0.150344 0.175311 0.677014
0.526578 0.00373144 0.205276
-0.341037 0.114022 -0.353557
0.199192 -0.678106 0.290735
0.394396 0.532057 -0.298887
0.0351111 0.158057 0.698521
-0.44418 0.219253 0.489989
0.294856 0.315554 0.647438
0.0137508 0.577018 0.633931
-0.363158 -0.353254 -0.137938
-0.301782 0.6021 -0.37234
0.313167 0.148338 0.609644
-0.560259 0.292781 0.207299
0.494223 0.634578 0.286992
0.0412092 -0.373187 -0.614466
0.520581 0.564142 -0.0157516
-0.516173 0.634362 0.181802
0.24671 0.043575 0.602369
-0.10028 0.754555 -0.348477
0.118629 0.0766536 -0.550721
0.133857 -0.548308 0.41576
0.250164 -0.950014 -0.0316798
-0.207877 -0.623891 -0.133361
-0.337532 -0.193932 -0.394679
-0.311511 -0.440922 -0.0955081
-0.215145 -0.155497 0.46569
0.446588 0.0019489 -0.104095
0.544136 0.102777 0.127824
-0.35072 -0.745293 -0.016827
-0.0781048 0.910224 0.11694
-0.272128 0.715052 -0.313604
0.0870796 -0.392671 -0.611835
0.0726751 -0.561202 -0.481114
0.543411 -0.00925592 0.0905992
0.0353777 0.813427 -0.288423
0.112694 0.807993 -0.285078
-0.266445 -1.03005 -0.0372927
0.0121844 0.239706 0.720497
-0.0771596 -0.455954 -0.647552
-0.37942 0.625446 0.420476
-0.222491 -0.91101 0.0949248
0.406199 0.693925 0.366322
0.54354 0.405921 0.29554
-0.0952567 0.278965 0.702527
-0.315157 -0.512244 0.311512
-0.181473 -0.106478 0.537607
0.262956 0.595805 -0.417893
0.0823205 -0.570796 -0.309826
0.339818 -0.36186 0.16971
0.308521 0.834869 0.0614741
-0.0417489 -0.521335 0.459875
0.348686 0.257156 0.605681
0.164386 0.878091 0.309222
-0.27267 -0.50592 -0.353491
-0.366866 -0.613727 0.180244
0.482789 -0.0206262 0.200035
0.0469868 -0.0667103 -0.653647
0.103619 0.0627131 0.649258
0.0524018 -0.946297 -0.174823
-0.396144 0.389277 -0.295568
-0.422956 -0.0992942 -0.109502
0.34409 -0.410586 0.157626
0.363425 0.512473 0.546424
0.499005 0.0429075 0.193028
-0.286468 -0.04865 0.505456
-0.0576246 0.52425 -0.497136
0.0459491 -1.07241 0.203132
0.45362 -0.0610263 -0.0282533
0.106566 0.335895 0.697887
0.254132 -0.438311 0.380295
-0.454721 0.700038 0.175977
0.130277 -0.562812 -0.334616
0.314193 -0.113164 0.432835
-0.38591 -0.228679 -0.206682
0.378933 -0.131398 0.308372
0.111979 0.585038 0.630773
-0.0633709 -0.937263 -0.186546
-0.349256 0.64154 -0.291383
-0.30974 0.0161892 0.521581
-0.0824667 -0.653821 0.311254
-0.181472 -0.858704 -0.17245
0.215284 -0.524482 -0.169809
0.0413258 0.279805 0.71209
0.0817848 -0.29329 0.472608
-0.0523125 -0.562844 -0.461694
-0.437965 -0.212417 0.172843
-0.303582 0.332618 -0.446981
0.204935 -0.264704 0.407263
-0.381753 -0.60879 0.0930136
-0.289369 -0.856736 -0.0019062
-0.330575 0.53184 0.515895
0.338255 0.639925 -0.321001
0.268049 -0.688456 0.242699
-0.312263 -0.175566 0.342193
-0.0163993 -1.0694 0.201073
0.535584 0.178755 0.033414
0.0256069 0.721156 -0.397072
0.271561 0.829687 0.322243
0.19623 0.883574 -0.0190035
0.196928 0.412304 -0.51043
0.300685 0.0651712 0.571663
-0.0219948 0.804278 -0.298595
0.110088 -0.0424241 -0.646925
-0.366078 0.280665 -0.374544
-0.496904 -0.150195 0.19738
-0.118802 -0.172384 -0.634359
0.103709 -0.515037 -0.604955
0.505102 0.59195 0.34297
0.361537 -0.134955 -0.362448
0.352043 0.423161 -0.390626
-0.144875 -0.332379 -0.58727
-0.316961 0.802699 -0.0592301
-0.217325 -0.920703 -0.169669
0.0470344 0.888414 -0.143205
-0.426071 0.611354 -0.162814
0.376484 0.609492 0.494127
-0.322654 -0.531325 0.0244943
-0.48401 0.668572 0.200332
-0.0573373 -0.621895 -0.229979
-0.494979 0.113809 0.0119829
-0.0388571 -0.105142 0.588481
-0.106539 -1.01915 -0.212644
0.150836 -0.449016 0.465347
-0.187557 -1.04978 0.137334
-0.271882 -0.748947 0.143028
-0.136701 -0.742581 -0.169182
0.281535 -0.80644 -0.0853401
-0.199633 -0.623143 0.316474
0.368332 -0.312048 -0.242509
-0.0746472 -0.62007 0.347532
-0.510967 0.0542544 0.224747
0.130502 -0.957863 -0.165756
0.078958 0.79068 -0.316708
0.440691 -0.0597756 0.2141
0.173589 0.341293 0.689832
-0.0393661 0.12328 0.68389
0.455255 -0.178596 0.0941578
0.365398 0.391947 0.582463
-0.221426 0.864719 0.15271
-0.140911 -0.830691 -0.169614
0.0532526 0.91228 -0.0307335
0.427084 -0.1007 0.172545
0.392143 -0.0646755 0.372631
-0.0234935 -0.105363 -0.627475
0.18659 -1.01311 0.109711
-0.455319 0.586444 0.386851
-0.135177 0.253985 -0.487411
-0.278632 0.804409 -0.170193
0.315273 -0.0338848 -0.441128
0.202802 0.443225 0.663893
0.299675 0.81762 -0.0815624
0.336957 0.813208 0.0198001
0.505823 0.61264 -0.0199838
-0.274469 0.685411 0.481547
0.514359 0.231553 0.373327
-0.259919 0.0353445 -0.491767
0.375825 0.691097 0.412928
0.432381 -0.0685039 0.261893
-0.339071 -0.442778 0.156061
-0.421366 0.496472 0.469938
0.316613 0.7989 0.321096
0.484486 0.374951 -0.172174
-0.211722 0.0144378 0.598835
-0.485935 0.534654 0.387774
-0.123582 0.901301 -0.00309634
0.073074 -0.330432 -0.621016
0.366597 -0.608011 0.0646684
-0.41509 0.394841 0.503433
-0.4169 0.431789 -0.255833
-0.534014 -0.110658 0.277037
0.251692 -0.779851 0.132949
0.0818774 -0.656251 -0.21489
0.276649 -0.127449 0.468459
0.0818457 -0.252205 -0.617221
0.0409076 -0.849988 0.213039
-0.352254 0.35149 0.576436
0.256919 -0.486897 -0.407969
-0.303192 0.75293 -0.225209
0.450244 0.57646 -0.162402
-0.167611 0.347843 0.669891
0.395698 0.724294 0.326846
-0.293979 -0.393972 -0.45011
0.0521369 0.759395 -0.359829
0.286646 -0.629875 -0.0790999
0.482154 0.23213 -0.142539
-0.238747 -0.782821 -0.127797
-0.453669 0.442824 0.456311
0.205584 0.338562 -0.518774
0.551582 0.239167 0.273369
-0.437292 0.0284756 0.310874
-0.245707 -0.505101 -0.219956
0.365094 -0.068526 0.415142
-0.264889 0.83812 -0.0812833
-0.00917006 -0.923203 -0.180965
-0.215151 0.796629 -0.248544
-0.255093 0.348282 0.630415
-0.417946 -0.155687 -0.0219603
-0.0385056 -0.266748 0.467566
-0.430424 -0.0661593 0.256857
-0.247891 -0.399113 0.330778
0.179105 0.559506 -0.471254
0.326965 -0.337504 -0.0132916
0.334877 -0.379051 0.0408751
-0.0287579 0.916324 0.0123362
-0.30736 -0.250555 0.234738
-0.462835 0.529409 -0.130216
0.329221 0.81987 0.108991
0.288837 -0.685356 -0.0792165
0.189212 -0.798206 0.235122
-0.153585 0.490986 -0.484561
0.31277 0.754578 -0.217697
-0.130269 -0.115569 0.552328
-0.103464 -0.495334 -0.631414
0.295374 -0.196403 0.323407
0.369695 -0.265085 -0.276441
0.435657 0.0132983 -0.260462
-0.497537 0.459126 -0.0761894
-0.269678 -0.922658 -0.137392
0.441713 -0.0223744 -0.059731
-0.1192 -0.553689 -0.481986
-0.397403 -0.237058 -0.0666596
-0.278246 -1.02284 -0.159459
0.37286 -0.0235961 -0.378541
0.3027 0.119729 -0.428513
0.210886 0.876027 0.22644
0.544757 0.55574 0.0891906
-0.0809802 0.904529 0.201531
-0.395536 -0.115884 -0.296101
0.400646 0.0184277 -0.342939
-0.326753 -0.310079 -0.398237
0.60839 0.043683 0.209286
0.19484 -0.354009 0.435632
-0.336787 0.776543 -0.108387
0.427898 0.0585792 -0.293762
-0.393038 0.275233 -0.310163
-0.0575505 0.914106 0.0667775
0.548978 0.211371 0.100449
0.357243 0.0202274 0.488856
0.167352 -0.665353 -0.151232
0.0771275 -0.717362 0.267386
-0.37725 -0.1051 -0.348128
0.335205 -0.205998 -0.395445
-0.0200933 0.745781 -0.372489
-0.421531 0.0394927 0.374616
-0.267782 -0.685833 -0.0897532
0.218572 -0.955962 0.0388855
0.148833 0.891448 -0.0655903
0.108492 -0.678518 0.299482
-0.0188403 0.7892 0.516739
0.20541 -0.515521 -0.437292
-0.103684 0.649588 0.590023
0.237376 0.526468 -0.455866
0.0714251 0.520238 0.654405
-0.134493 0.785155 -0.30313
-0.434828 0.0926826 0.410971
-0.395348 0.723363 0.325794
0.28965 -0.729183 0.133767
-0.525349 0.331545 -0.0356575
-0.314807 -0.456566 -0.319622
-0.0823064 -0.577077 -0.349066
0.211031 0.10134 0.640493
-0.558228 0.44997 0.233603
0.296084 0.837294 0.179506
-0.0632721 -0.22022 0.483767
-0.00152804 0.894098 -0.13131
-0.28886 -0.962894 -0.077985
-0.0788043 -0.429965 0.473238
0.0831341 0.189055 -0.527251
-0.0548935 -0.566933 -0.389304
0.266577 0.651397 0.551242
-0.425334 0.327002 -0.24405
0.213987 0.313664 0.677637
-0.395308 -0.116162 0.271675
-0.368347 0.177769 -0.33328
0.493716 0.179767 0.3813
-0.417858 0.19884 -0.245243
-0.338432 -0.408456 -0.29652
-0.11982 0.603189 0.60614
0.361535 -0.51976 0.0666368
-0.267471 -0.0970919 -0.487716
-0.0643818 0.333358 0.696372
0.216622 -0.145132 0.513483
0.453648 -0.149467 0.00340595
0.138958 -0.94716 0.211293
0.257926 0.103208 -0.465109
0.0583887 0.149938 -0.624897
-0.172407 0.651614 0.571451
-0.453739 0.0331859 0.263855
-0.0379976 -0.9711 0.201392
-0.276604 0.796415 0.377576
0.548529 0.22508 0.0211768
0.531204 0.535289 0.304215
-0.269255 0.175527 -0.447612
0.133023 -0.399221 0.473115
-0.0908079 0.563264 0.626357
0.52589 -0.0719994 0.203125
-0.221038 0.3141 0.654087
0.0394911 -0.0848795 -0.707355
0.0157107 0.11393 0.684193
0.347546 -0.319685 0.139067
-0.132736 -0.567612 -0.35107
0.221577 0.578007 -0.447833
0.138926 0.376304 0.693112
-0.484572 0.610925 0.00253802
0.0343534 0.618867 -0.460027
-0.291712 0.732325 -0.271688
0.214384 0.810165 -0.237593
0.17321 -0.254644 0.448379
-0.256318 0.341767 -0.478102
0.524016 0.202811 -0.0171865
-0.291681 -0.580815 -0.0401937
-0.547491 0.416145 0.0013727
0.172561 0.756606 -0.334966
0.556755 0.236382 0.142552
0.142814 0.86967 -0.157903
0.0718542 -0.794148 0.231052
-0.347114 -0.195075 0.202428
0.35484 -0.208894 0.148612
0.0645959 -0.589999 -0.241892
0.391398 -0.275073 -0.19106
0.158792 0.121442 0.662522
-0.301311 -0.916128 -0.0965695
0.0947855 0.712441 0.568893
0.426131 0.379734 -0.268026
0.129656 0.845014 0.410673
0.36721 0.166306 -0.345503
-0.411877 0.26478 -0.265022
-0.393154 -0.0813262 0.339136
0.316295 -0.71713 -0.0407889
-0.358906 0.070799 -0.37767
-0.29258 0.468988 0.568362
0.0195835 0.124863 -0.686555
0.408305 -0.214528 -0.156642
-0.316778 -0.442605 -0.22962
0.310955 -0.794472 -0.0401316
-0.200176 -0.0292055 0.57599
0.551875 0.508608 0.177915
-0.161211 0.806264 -0.265349
-0.222278 0.829729 0.377726
0.39606 0.555114 0.501485
0.00717055 -0.976411 -0.189095
0.451876 0.00334814 0.318247
-0.413638 -0.240076 0.0388851
0.00600636 0.847844 0.431906
-0.126788 -0.36627 0.450699
0.533434 0.159242 0.211536
0.340253 -0.494619 0.00132413
0.280207 0.519517 -0.429997
0.349502 -0.367907 0.120132
-0.447424 0.00721829 -0.206701
-0.235955 -0.279645 -0.526208
0.201964 0.0506854 0.622365
-0.265478 -0.0936238 0.49014
0.329048 -0.570877 0.321895
-0.170476 0.598052 0.594484
0.230405 -0.915739 -0.122305
-0.216527 0.858721 0.272784
-0.339226 0.712745 -0.230317
-0.453091 0.387063 0.457786
-0.406085 -0.195185 -0.112867
0.524239 0.501894 0.343103
0.307714 -0.0237245 0.50997
-0.316804 -0.73299 -0.0523641
0.0783025 -0.569612 0.402786
-0.280067 -0.412149 0.294118
0.195227 0.19309 -0.460962
-0.00822029 -0.598839 -0.254172
0.19913 0.163119 0.660852
-0.159879 -0.526017 -0.536729
-0.256249 -0.435121 -0.488982
0.382457 0.663495 -0.229402
0.150746 -1.04889 0.195425
-0.324947 -0.283828 0.158968
0.225904 -0.491765 -0.208209
-0.222888 0.86173 0.215706
-0.211684 -0.503995 -0.487853
-0.20938 -1.03098 0.0949279
-0.5069 0.419492 0.369751
-0.113069 -0.590109 -0.237058
-0.395598 -0.265437 -0.00140595
-0.279893 0.832189 -0.0322319
0.117265 0.424009 -0.535397
-0.0376929 -0.562987 -0.511927
-0.339705 -0.680097 -0.014796
-0.0904613 0.627404 -0.453008
-0.0939715 -0.798308 -0.181697
-0.0552956 0.134407 -0.596523
0.0641565 -0.658286 0.31037
0.0992068 0.810953 0.476727
0.341794 0.796306 0.263633
0.259891 0.178077 -0.450749
0.255587 0.862176 0.0646707
0.130761 -0.218682 0.484928
-0.277815 0.399807 0.601169
0.27344 -0.36723 0.310452
-0.0677106 -0.0566322 0.609848
0.352484 -0.292083 -0.350214
-0.334937 0.24008 -0.430549
-0.239756 0.747301 0.460065
-0.397096 0.751477 0.157659
-0.25215 -0.511024 -0.405264
0.0262184 -0.635804 0.333356
-0.0200819 -0.345372 0.468073
0.36882 -0.323495 -0.193512
0.429634 0.657206 -0.140811
0.493863 0.106552 0.307931
-0.317193 0.772737 -0.167859
0.185717 0.83468 0.400989
-0.31066 -0.874455 -0.070267
0.563628 0.405665 0.229298
0.266043 -0.00822241 0.560548
-0.382595 0.0120285 0.443239
0.286761 -0.859183 -0.0787763
-0.482314 0.67034 0.140287
0.34545 0.473651 -0.39239
-0.404651 -0.16169 0.186142
0.270161 0.854877 0.129807
0.193244 -0.623568 -0.141326
0.0163171 -0.244862 0.474638
-0.250324 0.00373733 0.563999
-0.176228 -0.271133 -0.572116
0.0201033 0.918036 0.153244
-0.054756 0.666343 0.59072
-0.121022 0.90163 0.0893022
-0.219897 -0.459378 -0.513822
0.446133 0.1278 -0.209147
0.000254147 0.459408 0.672094
0.335104 0.386791 -0.424692
-0.0388713 0.911353 -0.046117
-0.160232 -0.0237434 -0.549555
-0.572316 0.0128828 0.267319
0.461521 0.674171 0.263123
-0.179764 0.693502 -0.389142
0.314466 -0.177053 -0.431699
-0.464291 0.488586 0.434267
-0.351209 -0.335072 -0.300035
-0.434125 -0.127727 0.126023
-0.0731895 -0.577157 0.397557
0.0211909 -0.78662 0.229294
0.0542148 0.0400707 0.649113
0.155755 0.0613906 -0.52072
-0.225854 -1.0599 0.0559154
-0.279822 -0.773428 0.0996302
0.0920013 0.671171 -0.432024
-0.104845 -0.219268 0.45604
0.156859 0.0679968 0.643468
-0.320275 0.810605 0.0614904
-0.50445 0.267866 -0.0890244
-0.237052 -0.880276 -0.148066
-0.0047329 0.819298 0.4782
-0.0436615 -0.253319 -0.622012
