0.55 0.430896 -0.24433 1 1 1
0.8 0.0838581 0.243497 1 1 1
-0.55 -0.613442 0.238408 1 1 1
-0.8 -0.102225 0.243057 1 1 1
-0.8 -0.375834 0.210232 1 1 1
0.55 0.468243 -0.247972 1 1 1
0.55 -0.520776 -0.249599 1 1 1
-0.55 0.246721 0.201647 1 1 1
-0.55 0.52817 -0.249328 1 1 1
-0.2 0.777913 0.243528 1 1 1
-0.8 -0.283991 0.228954 1 1 1
0.55 -0.82968 0.0460756 1 1 1
0.2 0.798938 -0.237949 1 1 1
-0.2 -0.584526 0.212287 1 1 1
0.2 -0.490936 0.119076 1 1 1
0.2 0.978383 0.023183 1 1 1
0.55 0.485113 -0.249223 1 1 1
-0.55 0.0240756 0.151095 1 1 1
-0.55 0.0300443 -0.151765 1 1 1
-0.2 0.937971 -0.13598 1 1 1
0.2 -0.467588 0.0644524 1 1 1
0.8 0.139849 -0.241672 1 1 1
0.2 -0.801545 0.237185 1 1 1
-0.55 0.157268 0.17564 1 1 1
-0.2 0.935613 0.139182 1 1 1
-0.8 0.120404 -0.242388 1 1 1
-0.55 -0.100263 0.161561 1 1 1
-0.55 -0.118996 0.165617 1 1 1
0.8 -0.595984 -0.024504 1 1 1
-0.55 -0.697438 0.207867 1 1 1
0.55 -0.482123 -0.249124 1 1 1
0.8 0.481178 0.168052 1 1 1
-0.2 -0.961637 0.0910622 1 1 1
-0.2 -0.462522 -0.044931 1 1 1
0.2 0.467407 -0.0637552 1 1 1
-0.55 -0.472183 0.248796 1 1 1
0.2 -0.60483 -0.223067 1 1 1
0.2 0.704798 0.248999 1 1 1
-0.2 -0.84311 -0.219993 1 1 1
-0.2 -0.490936 -0.119076 1 1 1
-0.2 0.46896 -0.0690723 1 1 1
-0.2 -0.977496 0.02921 1 1 1
-0.8 -0.155323 -0.240716 1 1 1
-0.8 -0.0689439 0.24404 1 1 1
-0.8 0.174837 -0.239956 1 1 1
0.55 -0.502002 -0.249781 1 1 1
-0.8 0 0.244889 1 1 1
0.55 -0.0622669 0.155721 1 1 1
0.8 0.283738 0.228828 1 1 1
0.2 -0.905465 -0.175043 1 1 1
-0.8 0.471074 -0.17339 1 1 1
0.55 -0.466237 -0.248203 1 1 1
0.8 0.0295474 -0.244525 1 1 1
-0.2 -0.60483 0.223067 1 1 1
0.55 0.412733 -0.241784 1 1 1
-0.8 0.284709 -0.228686 1 1 1
0.2 -0.670703 -0.244899 1 1 1
0.55 0.218801 0.193768 1 1 1
0.55 -0.70724 -0.202021 1 1 1
0.55 -0.431074 0.244737 1 1 1
-0.2 -0.917936 -0.162016 1 1 1
-0.8 -0.246506 -0.233419 1 1 1
0.55 0.13248 0.169237 1 1 1
0.8 -0.593972 0.0325933 1 1 1
-0.8 -0.391111 -0.205918 1 1 1
-0.2 -0.871125 0.203566 1 1 1
0.8 0.08522 -0.243683 1 1 1
-0.2 -0.69988 0.248691 1 1 1
0.8 -0.239098 0.234149 1 1 1
-0.55 0.43118 -0.244529 1 1 1
-0.2 -0.907662 0.173025 1 1 1
-0.2 0.977681 0.0285472 1 1 1
0.55 -0.301069 -0.217565 1 1 1
-0.55 -0.185356 0.183819 1 1 1
-0.55 -0.373923 -0.235102 1 1 1
0.8 -0.502988 0.155015 1 1 1
0.55 -0.0758039 -0.157374 1 1 1
0.55 -0.721942 -0.193253 1 1 1
0.55 -0.465843 0.248196 1 1 1
0.8 -0.268169 -0.231355 1 1 1
0.55 0.395956 0.239148 1 1 1
-0.2 -0.64824 0.239514 1 1 1
0.2 -0.80511 -0.236221 1 1 1
0.55 -0.134987 -0.169909 1 1 1
0.55 0.705788 -0.20277 1 1 1
-0.8 0.0948604 0.243328 1 1 1
-0.8 0.138569 -0.241611 1 1 1
0.55 0.227818 -0.196155 1 1 1
-0.8 0.0838581 -0.243497 1 1 1
0.2 0.633296 -0.234373 1 1 1
0.2 0.978113 -0.025832 1 1 1
-0.55 -0.818788 0.080271 1 1 1
-0.2 0.591715 0.216348 1 1 1
0.8 0.175839 -0.239657 1 1 1
-0.8 0.590022 0.0453247 1 1 1
0.55 0.690004 -0.211065 1 1 1
-0.55 0.285023 -0.21324 1 1 1
-0.55 -0.559416 0.247269 1 1 1
0.2 0.520357 -0.159369 1 1 1
-0.8 -0.590703 0.0457385 1 1 1
-0.8 -0.321895 0.222908 1 1 1
0.55 0.466175 0.248197 1 1 1
0.55 0.35652 -0.23113 1 1 1
-0.8 -0.283649 -0.228972 1 1 1
0.8 -0.0247205 0.24443 1 1 1
0.8 -0.598002 -0 1 1 1
0.55 0.832702 0.028522 1 1 1
-0.2 -0.816145 0.232149 1 1 1
-0.2 0.816145 -0.232149 1 1 1
-0.8 0.340079 -0.219332 1 1 1
-0.55 -0.200785 0.188535 1 1 1
-0.55 -0.505315 0.249891 1 1 1
-0.2 -0.979491 -0.001268 1 1 1
0.8 -0.00827758 0.244761 1 1 1
0.8 -0.203615 0.237646 1 1 1
0.8 -0.521487 -0.142177 1 1 1
0.2 -0.463159 -0.0469899 1 1 1
0.55 0.800592 0.114961 1 1 1
-0.2 0.741079 0.248712 1 1 1
0.55 -0.556277 -0.247614 1 1 1
-0.55 0.831772 -0.033784 1 1 1
-0.55 0.826693 0.0572184 1 1 1
0.2 0.667494 0.24413 1 1 1
0.2 0.932613 0.143205 1 1 1
-0.55 -0.264708 0.207867 1 1 1
-0.8 -0.351254 -0.216538 1 1 1
0.8 0.120404 0.242388 1 1 1
0.2 0.460275 -0.0293041 1 1 1
-0.55 -0.391338 -0.238645 1 1 1
-0.55 -0.446823 -0.246396 1 1 1
-0.2 0.961637 -0.0910621 1 1 1
0.55 0.116306 0.165388 1 1 1
-0.8 0.455917 -0.181395 1 1 1
0.55 0.783744 -0.137293 1 1 1
-0.2 -0.459881 0.028814 1 1 1
0.8 -0.212015 -0.2371 1 1 1
-0.55 -0.0233558 -0.151661 1 1 1
-0.55 0.828982 -0.04957 1 1 1
-0.8 -0.242678 0.234431 1 1 1
-0.8 0.40901 0.199683 1 1 1
0.2 0.500011 -0.132891 1 1 1
0.8 -0.366616 0.212597 1 1 1
-0.55 0.0606679 0.15426 1 1 1
0.2 0.7592 0.246983 1 1 1
-0.2 -0.458514 -0.0076025 1 1 1
-0.55 -0.233966 0.198107 1 1 1
0.55 -0.0481511 -0.15269 1 1 1
-0.2 0.633296 0.234373 1 1 1
0.8 0.0451295 0.2443 1 1 1
0.2 0.663993 -0.24322 1 1 1
-0.55 -0.557136 -0.247487 1 1 1
-0.2 -0.547331 0.186016 1 1 1
0.2 -0.937326 0.136496 1 1 1
0.55 0.155428 0.175276 1 1 1
-0.55 0.355839 -0.231246 1 1 1
-0.55 0.67108 -0.220553 1 1 1
-0.55 0.210062 -0.191188 1 1 1
0.8 -0.552415 0.112921 1 1 1
0.8 -0.0477405 0.243966 1 1 1
0.2 -0.756365 0.247501 1 1 1
0.55 -0.545072 0.248796 1 1 1
-0.8 0.590509 -0.0441237 1 1 1
0.2 -0.530657 -0.170681 1 1 1
-0.55 -0.05417 0.153089 1 1 1
-0.8 0.575093 -0.080671 1 1 1
0.2 -0.554436 0.191311 1 1 1
-0.2 0.979185 0.00672667 1 1 1
-0.55 -0.178142 -0.18198 1 1 1
-0.8 0.175197 0.239707 1 1 1
-0.8 -0.471152 -0.173747 1 1 1
-0.8 -0.449516 0.184381 1 1 1
-0.2 0.476189 0.0886953 1 1 1
-0.55 -0.523813 0.249498 1 1 1
0.55 -0.622783 -0.235929 1 1 1
0.55 -0.60712 -0.239831 1 1 1
0.8 0.210418 0.237185 1 1 1
0.55 0.451373 -0.246721 1 1 1
-0.2 0.542567 -0.181635 1 1 1
0.55 0.829447 0.046939 1 1 1
-0.8 -0.548507 -0.117849 1 1 1
0.2 -0.482843 0.103272 1 1 1
-0.8 -0.489823 0.163143 1 1 1
-0.8 -0.573794 -0.0828377 1 1 1
0.55 0.249872 -0.202563 1 1 1
0.2 0.880604 0.196368 1 1 1
0.55 0.610703 0.238656 1 1 1
-0.55 0.721652 -0.192815 1 1 1
-0.2 0.459658 -0.0258026 1 1 1
0.8 0.583245 0.0639612 1 1 1
0.55 0.127541 -0.167816 1 1 1
-0.55 -0.282272 0.212374 1 1 1
-0.2 0.701072 0.248995 1 1 1
0.55 0.721303 -0.192816 1 1 1
-0.55 -0.641466 -0.23097 1 1 1
0.55 0.265625 -0.20714 1 1 1
0.2 -0.820452 -0.230451 1 1 1
0.8 -0.171405 0.239976 1 1 1
-0.8 -0.0328304 0.244485 1 1 1
-0.8 0.393512 0.204123 1 1 1
-0.55 0.834409 0.00455825 1 1 1
0.2 -0.923258 0.1553 1 1 1
0.55 -0.336372 -0.226774 1 1 1
-0.8 -0.317453 -0.223477 1 1 1
0.2 0.486617 0.110879 1 1 1
-0.2 -0.96892 0.070832 1 1 1
0.2 0.603399 -0.221944 1 1 1
0.2 0.494771 0.124972 1 1 1
0.2 0.894477 0.185134 1 1 1
0.2 0.799481 0.237878 1 1 1
-0.8 0.546305 -0.120041 1 1 1
0.8 0.174837 0.239955 1 1 1
-0.2 0.489591 -0.116723 1 1 1
0.2 -0.961637 -0.0910621 1 1 1
-0.55 0.0850291 -0.15882 1 1 1
-0.55 -0.784951 -0.136555 1 1 1
-0.8 0.110928 0.242737 1 1 1
-0.8 0.561891 -0.100972 1 1 1
-0.2 -0.502699 -0.136984 1 1 1
-0.55 -0.834808 -0 1 1 1
0.2 -0.656555 0.241446 1 1 1
0.8 0.299515 0.226467 1 1 1
-0.2 0.506061 0.142101 1 1 1
-0.8 -0.170472 0.240272 1 1 1
-0.55 0.444937 0.245969 1 1 1
-0.8 0.20733 0.237195 1 1 1
0.55 0.376402 0.235515 1 1 1
0.8 -0.0262643 -0.244566 1 1 1
0.55 -0.319137 -0.222578 1 1 1
0.55 -0.119706 0.167324 1 1 1
0.2 0.960727 0.093591 1 1 1
0.2 -0.463247 0.0477198 1 1 1
0.8 -0.445214 -0.186388 1 1 1
0.55 -0.157428 0.17605 1 1 1
-0.2 -0.483086 0.103939 1 1 1
0.2 0.868774 -0.204753 1 1 1
-0.8 0.143063 0.241554 1 1 1
0.55 0.301244 0.217718 1 1 1
-0.8 -0.53687 0.129428 1 1 1
-0.2 0.555042 -0.19197 1 1 1
0.55 0.260161 0.20613 1 1 1
-0.55 0.122776 -0.166928 1 1 1
0.55 0.145679 -0.17259 1 1 1
0.55 0.546284 0.248675 1 1 1
-0.2 -0.51857 -0.157211 1 1 1
-0.8 0.594484 0.0272762 1 1 1
0.55 -0.80614 -0.105528 1 1 1
0.8 0.55277 -0.112317 1 1 1
0.55 0.0848544 -0.158618 1 1 1
0.2 0.815595 -0.232345 1 1 1
-0.2 0.495978 0.126751 1 1 1
0.55 -0.833406 -0.024504 1 1 1
0.8 0.427609 -0.194356 1 1 1
0.2 0.775591 0.243991 1 1 1
0.2 -0.739394 -0.249177 1 1 1
0.2 0.459881 0.028814 1 1 1
-0.8 0.523365 0.140873 1 1 1
-0.2 -0.670547 -0.244748 1 1 1
-0.8 0.446891 0.185105 1 1 1
-0.55 0.632149 0.233443 1 1 1
0.2 -0.472732 -0.0800938 1 1 1
0.8 0.331371 -0.221396 1 1 1
0.2 -0.762501 -0.246617 1 1 1
-0.2 -0.89983 -0.180589 1 1 1
0.8 -0.394141 0.204944 1 1 1
0.2 0.473039 0.080864 1 1 1
0.8 -0.319368 -0.223311 1 1 1
0.2 0.899829 -0.180589 1 1 1
-0.2 -0.535273 -0.174675 1 1 1
0.2 0.684442 -0.24684 1 1 1
-0.55 -0.410866 -0.241719 1 1 1
-0.8 0.0475161 -0.244275 1 1 1
0.8 -0.0641834 0.243635 1 1 1
-0.8 0.078793 0.243919 1 1 1
-0.2 0.651449 -0.240283 1 1 1
0.55 0.741672 -0.178101 1 1 1
-0.55 0.262474 0.206224 1 1 1
0.8 0.514197 0.147139 1 1 1
-0.2 0.950368 -0.11537 1 1 1
0.55 0.380422 -0.235887 1 1 1
-0.55 -0.216214 0.193252 1 1 1
0.55 -0.252584 0.204213 1 1 1
-0.8 0.464751 0.176172 1 1 1
-0.55 0.172939 0.179959 1 1 1
0.55 0.492381 0.249463 1 1 1
-0.55 0.063885 -0.155013 1 1 1
-0.2 -0.752598 0.247714 1 1 1
-0.55 0.395956 -0.239148 1 1 1
-0.8 -0.583701 -0.0636468 1 1 1
0.2 -0.547331 -0.186016 1 1 1
-0.2 -0.950368 0.11537 1 1 1
0.2 -0.626112 -0.23217 1 1 1
-0.2 -0.667895 0.244226 1 1 1
0.2 0.947599 -0.12038 1 1 1
-0.8 0.594955 -0.024788 1 1 1
0.55 -0.834808 -0 1 1 1
0.8 0.120568 -0.242382 1 1 1
-0.55 -0.0885347 -0.160113 1 1 1
-0.2 0.462523 0.044931 1 1 1
0.2 0.458617 -0.0106839 1 1 1
-0.8 0.502534 -0.155097 1 1 1
-0.55 0.722165 0.192263 1 1 1
-0.8 -0.171405 -0.239976 1 1 1
0.55 0.353072 0.230602 1 1 1
0.2 0.907662 0.173025 1 1 1
0.55 -0.592829 0.242486 1 1 1
0.2 0.551157 -0.188761 1 1 1
-0.8 -0.535134 -0.130475 1 1 1
-0.55 0.707943 0.201387 1 1 1
0.2 0.7833 -0.242535 1 1 1
-0.8 0.578034 0.0740913 1 1 1
0.8 0.155917 -0.241081 1 1 1
0.55 0.812559 0.094271 1 1 1
0.55 -0.283032 0.212912 1 1 1
0.55 -0.0107356 0.151437 1 1 1
-0.55 -0.488749 0.249343 1 1 1
-0.8 0.0262643 0.244566 1 1 1
0.8 0.590314 -0.0444655 1 1 1
0.2 0.686859 0.247313 1 1 1
0.8 0.563318 -0.0980736 1 1 1
-0.55 -0.169927 0.179102 1 1 1
-0.2 -0.645531 -0.238719 1 1 1
0.2 0.853219 0.214722 1 1 1
-0.8 -0.0854878 0.243673 1 1 1
0.2 -0.974656 0.0475538 1 1 1
0.55 -0.822214 -0.072571 1 1 1
-0.8 -0.595984 0.024504 1 1 1
0.2 -0.722678 0.249528 1 1 1
-0.8 0.103792 -0.242892 1 1 1
0.55 -0.182269 -0.182876 1 1 1
0.55 -0.150977 -0.174202 1 1 1
0.2 -0.5027 0.136984 1 1 1
0.8 0.159005 0.240737 1 1 1
-0.2 0.466593 0.0606179 1 1 1
0.2 -0.60223 0.221385 1 1 1
0.55 -0.369235 0.234149 1 1 1
0.2 0.466875 0.061834 1 1 1
0.2 -0.458892 -0.0154301 1 1 1
-0.2 -0.769046 0.245304 1 1 1
-0.2 0.458323 -0.00773437 1 1 1
-0.2 -0.725764 -0.249604 1 1 1
0.2 0.594678 0.217677 1 1 1
0.2 -0.956097 0.103436 1 1 1
0.8 0.318454 0.223384 1 1 1
0.8 -0.129004 -0.242071 1 1 1
0.55 -0.760482 0.162638 1 1 1
-0.2 0.759058 0.247004 1 1 1
0.8 0.504345 -0.153178 1 1 1
-0.55 0.796413 0.121176 1 1 1
0.2 0.64824 0.239514 1 1 1
-0.2 0.520357 0.159369 1 1 1
-0.55 -0.538446 -0.249015 1 1 1
0.8 -0.548507 -0.117849 1 1 1
-0.55 -0.829215 -0.048773 1 1 1
-0.55 0.411938 -0.241879 1 1 1
-0.55 0.688118 -0.212355 1 1 1
-0.55 -0.427492 -0.244202 1 1 1
-0.55 0.367498 0.233528 1 1 1
-0.2 0.482842 0.103272 1 1 1
-0.55 0.822157 0.072702 1 1 1
-0.55 -0.721942 0.193252 1 1 1
-0.55 -0.829739 0.0457385 1 1 1
-0.8 -0.41535 -0.198124 1 1 1
-0.8 0.15913 0.240963 1 1 1
0.2 -0.883763 -0.193969 1 1 1
0.2 0.866649 0.206355 1 1 1
-0.2 -0.459825 -0.0261788 1 1 1
-0.8 0.359415 0.21389 1 1 1
-0.2 0.768228 -0.245468 1 1 1
0.55 0.834028 0.0124021 1 1 1
0.2 0.971139 0.0620041 1 1 1
0.55 -0.200785 -0.188536 1 1 1
-0.55 0.30959 0.219592 1 1 1
-0.55 0.340552 0.227642 1 1 1
-0.55 0.782588 -0.138918 1 1 1
0.8 0.597054 -0.01151 1 1 1
0.55 -0.353607 0.23097 1 1 1
-0.55 -0.77917 0.143271 1 1 1
-0.55 -0.462673 -0.247896 1 1 1
0.8 -0.526219 0.138892 1 1 1
0.8 -0.155323 0.240716 1 1 1
-0.8 0.0623778 0.244121 1 1 1
-0.2 0.801545 0.237185 1 1 1
0.8 -0.302087 0.225975 1 1 1
0.55 -0.23743 0.199646 1 1 1
0.55 0.65889 0.224843 1 1 1
-0.55 -0.790179 0.12954 1 1 1
0.55 -0.267762 0.208708 1 1 1
-0.55 -0.216214 -0.193253 1 1 1
0.8 -0.320526 0.222978 1 1 1
-0.2 0.925271 -0.153108 1 1 1
-0.8 0.426845 -0.194477 1 1 1
-0.55 -0.681737 0.215435 1 1 1
0.8 -0.583285 -0.0646383 1 1 1
0.8 -0.589948 0.048772 1 1 1
0.2 0.83249 0.225416 1 1 1
0.8 0.446891 -0.185105 1 1 1
-0.2 0.673356 0.245403 1 1 1
0.55 0.822157 -0.072701 1 1 1
-0.55 0.764567 0.158062 1 1 1
0.55 0.109402 -0.163042 1 1 1
-0.55 0.556551 0.247444 1 1 1
-0.8 0.548953 0.116823 1 1 1
-0.8 0.597054 0.01151 1 1 1
-0.55 -0.319137 -0.222578 1 1 1
-0.8 -0.206124 -0.237398 1 1 1
0.55 -0.0458351 0.153323 1 1 1
0.8 -0.139242 0.241457 1 1 1
-0.8 0.583245 -0.0639612 1 1 1
-0.55 -0.367498 0.233528 1 1 1
0.8 0.229317 0.23543 1 1 1
0.2 0.565323 0.19991 1 1 1
0.55 -0.316264 0.221879 1 1 1
0.8 0.441347 0.188154 1 1 1
0.8 -0.0970691 0.242973 1 1 1
0.55 0.824776 0.0638713 1 1 1
0.55 0.236926 0.19923 1 1 1
0.55 -0.829738 -0.0457394 1 1 1
0.55 0.0664438 -0.155301 1 1 1
-0.8 0.126995 0.242145 1 1 1
-0.55 -0.578247 0.245196 1 1 1
0.8 0.455916 0.181395 1 1 1
-0.55 0.0769126 0.157187 1 1 1
-0.55 -0.697438 -0.207867 1 1 1
-0.8 -0.487156 -0.164658 1 1 1
-0.55 0.744179 0.176082 1 1 1
0.55 -0.490405 0.249398 1 1 1
-0.2 -0.949015 -0.117556 1 1 1
0.55 -0.192785 0.186315 1 1 1
-0.55 0.814713 -0.0894223 1 1 1
-0.55 -0.40089 0.240229 1 1 1
-0.2 -0.688754 -0.247399 1 1 1
0.8 -0.236545 -0.234965 1 1 1
0.55 -0.796932 0.120479 1 1 1
0.55 -0.446823 0.246396 1 1 1
0.55 0.830738 -0.039632 1 1 1
0.8 0.52709 -0.137831 1 1 1
-0.2 0.956097 0.103436 1 1 1
0.2 -0.871125 -0.203566 1 1 1
-0.8 -0.25861 0.232508 1 1 1
0.55 0.17326 -0.180053 1 1 1
-0.8 -0.357399 0.214962 1 1 1
-0.55 0.188183 0.184458 1 1 1
-0.2 -0.791988 -0.239987 1 1 1
-0.8 0.305829 -0.225439 1 1 1
-0.55 -0.650079 0.227948 1 1 1
0.55 -0.823964 0.0666212 1 1 1
0.55 0.761032 -0.161626 1 1 1
0.55 -0.638352 -0.231797 1 1 1
0.2 0.917936 -0.162016 1 1 1
-0.8 0.242677 0.234431 1 1 1
0.55 -0.773112 0.14984 1 1 1
0.55 0.57165 0.245922 1 1 1
-0.55 -0.711051 -0.199748 1 1 1
0.2 -0.567047 0.201115 1 1 1
0.2 -0.651048 -0.240187 1 1 1
-0.55 0.0931573 0.160115 1 1 1
-0.8 0.156734 -0.240834 1 1 1
0.2 0.834286 -0.224706 1 1 1
0.55 -0.688715 0.212071 1 1 1
-0.55 0.192584 -0.186029 1 1 1
0.55 -0.0851284 0.159325 1 1 1
-0.55 0.621846 -0.236178 1 1 1
0.2 0.97209 -0.0582913 1 1 1
-0.55 0.592162 0.242494 1 1 1
-0.55 -0.765035 -0.158598 1 1 1
-0.55 -0.597496 0.241619 1 1 1
0.55 0.43118 0.244529 1 1 1
-0.8 -0.518475 -0.144267 1 1 1
-0.55 -0.575231 -0.245523 1 1 1
0.8 -0.427469 0.194226 1 1 1
0.55 -0.333499 0.226075 1 1 1
0.8 0.575093 0.080671 1 1 1
-0.55 0.0113498 -0.151047 1 1 1
-0.55 0.125357 0.167241 1 1 1
-0.2 0.464096 -0.052183 1 1 1
-0.55 0.822252 -0.072452 1 1 1
0.2 -0.460349 -0.0314106 1 1 1
0.2 0.966189 0.0784183 1 1 1
-0.8 0.340816 0.219217 1 1 1
-0.55 0.503208 0.249116 1 1 1
0.2 -0.719165 -0.249652 1 1 1
0.2 0.967821 -0.074336 1 1 1
-0.55 0.482554 -0.248988 1 1 1
0.55 -0.298303 0.217117 1 1 1
-0.55 -0.833406 0.024504 1 1 1
-0.55 -0.67127 -0.22048 1 1 1
-0.2 0.947599 0.12038 1 1 1
0.8 0.299695 -0.226051 1 1 1
0.8 0.577266 -0.0755395 1 1 1
-0.2 -0.97209 -0.058291 1 1 1
-0.2 -0.756365 -0.247501 1 1 1
-0.55 0.203427 0.188957 1 1 1
-0.8 -0.0492456 0.244283 1 1 1
-0.55 0.176723 -0.181313 1 1 1
0.2 -0.515404 -0.153977 1 1 1
0.2 0.586782 -0.213301 1 1 1
-0.55 0.320286 -0.222696 1 1 1
0.2 0.942103 0.129109 1 1 1
0.55 0.826693 -0.0572176 1 1 1
0.55 -0.67127 0.22048 1 1 1
0.8 -0.0806262 0.243304 1 1 1
0.8 0.461774 -0.177661 1 1 1
0.2 0.765343 -0.245846 1 1 1
-0.2 0.60483 -0.223067 1 1 1
-0.2 -0.586781 -0.213301 1 1 1
0.55 -0.783208 -0.138893 1 1 1
-0.55 0.77635 0.14618 1 1 1
-0.55 0.706185 -0.202459 1 1 1
-0.55 -0.301929 -0.218115 1 1 1
0.8 -0.187486 0.239235 1 1 1
-0.55 0.0421322 0.152291 1 1 1
0.2 0.503639 0.138542 1 1 1
-0.8 -0.205883 0.237634 1 1 1
0.55 -0.808676 0.101215 1 1 1
-0.2 -0.521124 0.160241 1 1 1
0.55 0.806633 -0.104422 1 1 1
-0.55 0.428848 0.24409 1 1 1
0.55 0.786559 0.134397 1 1 1
-0.2 -0.491103 0.119129 1 1 1
-0.2 -0.825979 -0.228101 1 1 1
-0.2 0.720517 0.249475 1 1 1
-0.2 -0.501678 0.13597 1 1 1
0.8 -0.301363 -0.226183 1 1 1
0.55 -0.650407 0.227823 1 1 1
-0.55 -0.499517 -0.249699 1 1 1
0.55 0.714104 0.197927 1 1 1
0.55 -0.67127 -0.22048 1 1 1
0.55 -0.391269 -0.238601 1 1 1
-0.2 0.832196 -0.225564 1 1 1
0.55 -0.138567 0.171687 1 1 1
-0.2 -0.974836 0.047291 1 1 1
0.2 -0.970222 0.0653109 1 1 1
-0.55 0.265694 -0.20774 1 1 1
0.55 0.0605719 0.154695 1 1 1
0.2 -0.458514 0.0076025 1 1 1
0.55 -0.115798 -0.164759 1 1 1
0.2 -0.538222 0.177533 1 1 1
0.8 -0.590703 -0.0457394 1 1 1
-0.55 0.22719 -0.196285 1 1 1
-0.55 -0.800342 0.115385 1 1 1
0.8 0.192627 0.23857 1 1 1
0.55 0.525151 0.249436 1 1 1
-0.55 0.612156 0.237969 1 1 1
0.8 -0.113512 0.242642 1 1 1
-0.2 -0.923683 0.155249 1 1 1
-0.55 -0.299494 0.217079 1 1 1
0.55 0.819021 0.079725 1 1 1
-0.55 0.6467 -0.229133 1 1 1
0.8 0.268018 -0.230707 1 1 1
-0.2 0.853219 -0.214722 1 1 1
-0.2 0.562507 0.197585 1 1 1
0.55 -0.793665 -0.124864 1 1 1
-0.2 0.977496 -0.02921 1 1 1
0.8 -0.560232 -0.103064 1 1 1
0.8 -0.078793 -0.243919 1 1 1
-0.55 -0.0556946 -0.154761 1 1 1
-0.8 0.360524 -0.214144 1 1 1
0.8 0.103792 0.242892 1 1 1
-0.8 -0.574756 0.0812335 1 1 1
0.8 0.192549 -0.23835 1 1 1
0.8 0.497195 0.158336 1 1 1
-0.2 0.750948 -0.247897 1 1 1
-0.55 -0.231368 -0.19782 1 1 1
-0.55 0.807769 0.10256 1 1 1
0.8 -0.40025 -0.203042 1 1 1
-0.8 0.374913 0.20945 1 1 1
0.8 -0.335892 -0.22048 1 1 1
0.8 0.142921 0.241425 1 1 1
-0.2 0.914782 -0.165125 1 1 1
0.55 -0.816505 0.0854043 1 1 1
-0.55 0.391826 0.237968 1 1 1
-0.8 0.398377 -0.203637 1 1 1
0.8 0.366532 -0.211851 1 1 1
0.2 0.928579 -0.148584 1 1 1
-0.8 0.267234 -0.231243 1 1 1
-0.8 -0.139046 0.241702 1 1 1
0.55 -0.686971 -0.212912 1 1 1
-0.55 -0.341296 0.227973 1 1 1
0.8 -0.271355 0.23097 1 1 1
0.55 -0.575108 -0.245541 1 1 1
-0.8 -0.562187 -0.100599 1 1 1
0.2 0.462523 -0.044931 1 1 1
-0.55 0.562138 -0.246954 1 1 1
0.55 -0.244844 -0.201561 1 1 1
0.2 -0.836892 -0.223202 1 1 1
0.55 -0.424167 -0.243706 1 1 1
-0.55 -0.481294 -0.249097 1 1 1
-0.8 -0.4305 0.193252 1 1 1
-0.8 -0.583285 0.064638 1 1 1
0.55 -0.538998 -0.248997 1 1 1
-0.2 0.898872 -0.181098 1 1 1
-0.2 0.885343 -0.192769 1 1 1
0.55 0.729201 0.187702 1 1 1
0.55 0.293981 -0.215378 1 1 1
0.55 -0.739524 -0.180438 1 1 1
-0.2 0.974656 0.0475538 1 1 1
-0.55 -0.356509 -0.23156 1 1 1
0.2 -0.947599 0.12038 1 1 1
-0.55 0.469777 0.248086 1 1 1
-0.55 -0.118004 -0.16693 1 1 1
-0.8 0.231401 -0.235223 1 1 1
-0.8 0.441348 -0.188154 1 1 1
0.2 -0.90662 0.173624 1 1 1
0.2 0.479183 0.096269 1 1 1
-0.55 0.501292 -0.249527 1 1 1
0.55 -0.264708 -0.207868 1 1 1
-0.55 0.691684 0.210221 1 1 1
-0.55 -0.0721267 -0.157159 1 1 1
0.55 0.0770657 0.157386 1 1 1
0.55 0.593983 0.242216 1 1 1
0.2 0.547331 0.186016 1 1 1
0.8 0.264807 0.231599 1 1 1
0.55 -0.563167 0.246832 1 1 1
0.2 -0.581848 0.210255 1 1 1
-0.55 -0.824871 0.0636634 1 1 1
-0.8 -0.0815935 -0.243285 1 1 1
-0.2 0.61216 0.226142 1 1 1
-0.2 0.905865 0.174398 1 1 1
-0.8 0.321516 0.222844 1 1 1
0.2 -0.459725 0.0254842 1 1 1
-0.8 -0.456988 -0.180896 1 1 1
0.55 0.336473 0.22674 1 1 1
0.8 0.229309 -0.235476 1 1 1
-0.55 -0.729477 -0.187761 1 1 1
-0.2 0.834286 0.224706 1 1 1
0.2 0.567047 -0.201115 1 1 1
0.2 0.509635 -0.146418 1 1 1
0.55 0.761918 0.160807 1 1 1
-0.55 -0.798893 -0.117849 1 1 1
-0.2 -0.95893 -0.097788 1 1 1
0.55 -0.721942 0.193252 1 1 1
0.55 -0.787129 0.133631 1 1 1
-0.55 -0.261677 -0.206955 1 1 1
-0.2 0.544347 0.183466 1 1 1
-0.2 -0.809364 -0.234892 1 1 1
-0.2 -0.841589 0.220841 1 1 1
0.55 0.00902833 -0.150098 1 1 1
-0.8 -0.027332 -0.244377 1 1 1
0.8 0.25218 -0.233034 1 1 1
-0.8 -0.372761 -0.21102 1 1 1
0.2 -0.479183 -0.096269 1 1 1
-0.55 -0.081985 0.158598 1 1 1
-0.55 0.671528 0.220356 1 1 1
-0.2 0.733615 -0.249313 1 1 1
0.55 -0.100263 -0.161561 1 1 1
-0.55 -0.336372 -0.226774 1 1 1
0.8 0.334237 0.220815 1 1 1
-0.55 -0.160571 -0.176777 1 1 1
0.2 -0.856017 -0.212979 1 1 1
-0.2 -0.927914 -0.149423 1 1 1
0.2 0.648287 -0.239401 1 1 1
0.55 0.746063 0.174818 1 1 1
-0.8 -0.342037 0.218903 1 1 1
0.2 -0.954253 -0.107203 1 1 1
0.55 0.589306 -0.243141 1 1 1
-0.8 0.536602 0.129613 1 1 1
-0.8 -0.116728 -0.242494 1 1 1
-0.8 -0.187486 0.239235 1 1 1
0.8 0.596973 0.00481933 1 1 1
0.2 -0.501678 -0.13597 1 1 1
0.8 0.283856 -0.228379 1 1 1
-0.55 -0.325908 0.224226 1 1 1
-0.55 -0.279024 -0.211809 1 1 1
-0.55 -0.667306 0.221903 1 1 1
0.2 0.519762 0.15875 1 1 1
-0.2 0.532097 0.171598 1 1 1
-0.2 0.978937 -0.0109575 1 1 1
-0.55 0.218671 0.193456 1 1 1
-0.8 -0.0975527 -0.242963 1 1 1
0.8 -0.468726 0.175124 1 1 1
0.2 0.538222 -0.177532 1 1 1
-0.8 -0.504924 0.153671 1 1 1
-0.55 0.576204 0.244862 1 1 1
-0.8 -0.591457 -0.0427058 1 1 1
-0.2 -0.775219 -0.244025 1 1 1
-0.55 -0.417517 0.242712 1 1 1
-0.55 0.833489 0.023066 1 1 1
-0.55 0.293981 0.215378 1 1 1
-0.55 0.449458 -0.246614 1 1 1
-0.55 -0.624482 -0.235478 1 1 1
-0.2 -0.468221 -0.0668926 1 1 1
0.8 0.527687 0.137631 1 1 1
0.2 0.97552 -0.0421233 1 1 1
0.2 -0.963375 0.086062 1 1 1
-0.55 -0.811937 -0.095671 1 1 1
-0.2 0.667494 -0.24413 1 1 1
-0.55 0.802088 -0.112375 1 1 1
-0.8 -0.335892 -0.22048 1 1 1
-0.8 -0.597329 0.008168 1 1 1
-0.2 -0.465717 0.0578128 1 1 1
0.55 0.100132 0.16154 1 1 1
-0.2 0.855202 0.213535 1 1 1
0.2 0.852587 -0.214931 1 1 1
-0.2 0.576914 0.207208 1 1 1
0.55 -0.746823 0.174757 1 1 1
-0.55 0.157723 -0.175879 1 1 1
-0.2 0.798275 -0.238233 1 1 1
-0.8 0.57035 0.088578 1 1 1
0.2 -0.673356 0.245403 1 1 1
-0.2 0.963375 0.086062 1 1 1
-0.55 0.249096 -0.202911 1 1 1
0.55 -0.100846 0.162961 1 1 1
-0.55 0.833942 -0.013751 1 1 1
-0.8 0.213383 -0.236954 1 1 1
0.55 0.652626 -0.226687 1 1 1
0.55 -0.00902833 -0.150098 1 1 1
0.8 -0.369689 -0.211809 1 1 1
-0.2 -0.707245 -0.249147 1 1 1
-0.8 -0.224281 0.236032 1 1 1
-0.2 -0.938467 -0.134705 1 1 1
0.2 0.728851 -0.24968 1 1 1
0.55 0.638415 0.231481 1 1 1
0.8 -0.385051 -0.207867 1 1 1
-0.8 0.502988 0.154056 1 1 1
-0.2 -0.603398 -0.221944 1 1 1
-0.2 0.967099 -0.0758888 1 1 1
-0.2 0.623452 -0.231032 1 1 1
0.8 0.104501 -0.242973 1 1 1
-0.2 -0.546869 -0.185427 1 1 1
-0.8 -0.41241 0.199181 1 1 1
0.55 -0.591079 -0.242812 1 1 1
0.2 -0.777913 0.243528 1 1 1
-0.2 0.892293 0.186881 1 1 1
-0.2 -0.978457 -0.019691 1 1 1
-0.55 0.815471 0.0874254 1 1 1
0.55 -0.83294 0.0272004 1 1 1
-0.55 0.757054 -0.165433 1 1 1
-0.2 -0.885869 0.192369 1 1 1
0.55 -0.412657 0.241986 1 1 1
-0.8 0.0426795 0.244364 1 1 1
-0.8 0.378006 -0.20938 1 1 1
-0.8 -0.004989 -0.244827 1 1 1
-0.2 -0.785409 0.242022 1 1 1
0.8 -0.45993 -0.179523 1 1 1
0.2 -0.587427 -0.213827 1 1 1
0.55 -0.508628 0.25 1 1 1
-0.2 0.716275 -0.24972 1 1 1
0.2 -0.868774 0.204753 1 1 1
0.55 0.542413 -0.248884 1 1 1
-0.55 -0.744547 -0.176777 1 1 1
-0.2 -0.470581 0.074702 1 1 1
0.2 0.739395 0.249177 1 1 1
0.8 0.00656608 -0.244808 1 1 1
0.55 -0.280971 -0.21204 1 1 1
-0.8 -0.523853 0.140534 1 1 1
0.55 0.774647 0.14796 1 1 1
0.2 -0.978383 -0.023183 1 1 1
-0.8 0.305091 0.225258 1 1 1
-0.8 -0.227868 -0.235256 1 1 1
0.2 0.816145 0.232149 1 1 1
0.2 -0.701072 0.248995 1 1 1
-0.55 -0.0392624 -0.152364 1 1 1
-0.2 0.974836 -0.047291 1 1 1
0.55 -0.52685 0.249398 1 1 1
0.55 -0.632974 0.233224 1 1 1
0.8 -0.474546 -0.171819 1 1 1
0.55 0.629089 -0.234136 1 1 1
0.2 0.490936 -0.119076 1 1 1
-0.8 -0.136026 -0.241605 1 1 1
0.8 0.00754064 0.244695 1 1 1
0.2 -0.467338 -0.0634425 1 1 1
-0.8 0.487705 0.163943 1 1 1
-0.2 -0.726184 0.249487 1 1 1
0.8 0.426845 0.194477 1 1 1
0.8 -0.41545 -0.198216 1 1 1
0.8 -0.489096 -0.163556 1 1 1
-0.55 -0.0075805 -0.151382 1 1 1
0.2 0.95893 -0.097788 1 1 1
-0.55 0.410072 0.241298 1 1 1
0.8 0.2126 -0.236783 1 1 1
0.55 -0.16684 -0.178159 1 1 1
-0.2 0.474268 -0.083945 1 1 1
-0.8 0.191263 0.238451 1 1 1
-0.55 0.770676 -0.152481 1 1 1
0.55 0.00819478 0.151102 1 1 1
0.8 -0.255226 0.232559 1 1 1
0.2 0.618002 -0.22894 1 1 1
0.55 0.796413 -0.121177 1 1 1
0.55 0.211771 -0.191419 1 1 1
-0.8 0.429809 0.193452 1 1 1
-0.2 -0.683628 0.24683 1 1 1
0.55 0.0440065 0.153105 1 1 1
0.8 -0.430499 -0.193253 1 1 1
-0.2 -0.976385 -0.0366929 1 1 1
0.8 -0.534543 -0.131744 1 1 1
0.55 0.411938 0.241879 1 1 1
0.2 -0.693322 -0.248279 1 1 1
0.2 0.530657 0.170681 1 1 1
0.8 -0.187486 -0.239235 1 1 1
0.2 -0.565323 -0.19991 1 1 1
-0.55 -0.385326 0.237333 1 1 1
-0.2 0.530657 -0.170681 1 1 1
0.8 0.398678 -0.202643 1 1 1
0.8 -0.486186 0.165209 1 1 1
0.8 -0.566095 0.095671 1 1 1
-0.55 -0.154175 0.17506 1 1 1
-0.8 0.0278267 -0.244482 1 1 1
0.2 0.747194 -0.248227 1 1 1
0.2 -0.96892 -0.070831 1 1 1
0.2 -0.834286 0.224706 1 1 1
0.55 0.448343 0.246508 1 1 1
0.8 0.0263351 0.244497 1 1 1
-0.55 -0.822214 -0.072571 1 1 1
0.8 -0.170472 -0.240272 1 1 1
-0.2 -0.626261 -0.231874 1 1 1
0.55 -0.407541 -0.241222 1 1 1
0.2 0.722055 0.249584 1 1 1
-0.55 0.546284 -0.248675 1 1 1
-0.55 -0.767054 0.156408 1 1 1
-0.55 -0.811937 0.095671 1 1 1
0.8 -0.596657 0.016336 1 1 1
0.8 -0.41232 0.199098 1 1 1
-0.55 0.743698 -0.176714 1 1 1
0.8 0.315533 -0.223724 1 1 1
-0.55 -0.198643 -0.18805 1 1 1
0.8 0.347244 -0.217375 1 1 1
0.2 0.623072 0.23087 1 1 1
-0.8 0.282097 0.228638 1 1 1
-0.8 -0.122309 0.242318 1 1 1
0.55 -0.771093 -0.15203 1 1 1
0.8 0.594484 -0.0272762 1 1 1
-0.2 0.868774 0.204753 1 1 1
-0.55 0.30155 -0.217803 1 1 1
-0.55 0.379962 -0.23624 1 1 1
-0.55 0.521302 0.249009 1 1 1
-0.55 -0.833407 -0.024504 1 1 1
-0.2 0.923258 0.1553 1 1 1
0.2 -0.849973 0.216328 1 1 1
-0.8 -0.265143 -0.231582 1 1 1
0.55 -0.027085 -0.151294 1 1 1
0.55 0.276758 0.210959 1 1 1
0.2 -0.525973 0.165664 1 1 1
-0.55 0.596775 -0.241753 1 1 1
-0.2 0.656556 0.241446 1 1 1
0.2 0.938467 -0.134705 1 1 1
0.2 0.579725 0.209193 1 1 1
0.8 -0.579953 0.072571 1 1 1
-0.55 -0.249337 0.202987 1 1 1
0.2 -0.739857 0.248808 1 1 1
0.2 0.458299 0.00739978 1 1 1
0.8 -0.00984913 -0.244768 1 1 1
0.55 0.027085 -0.151294 1 1 1
0.55 0.509089 0.249582 1 1 1
0.8 -0.454044 0.182269 1 1 1
-0.8 -0.187486 -0.239235 1 1 1
0.2 -0.936383 -0.138121 1 1 1
0.2 0.975279 0.0442775 1 1 1
-0.2 0.458617 0.0106839 1 1 1
0.55 0.673818 0.219235 1 1 1
0.55 -0.615989 0.237732 1 1 1
0.55 -0.360552 -0.232249 1 1 1
-0.8 0.192627 -0.23857 1 1 1
-0.55 0.138791 -0.170898 1 1 1
0.8 0.561891 0.100972 1 1 1
0.55 0.337308 -0.226934 1 1 1
0.8 -0.0623778 -0.244121 1 1 1
0.2 0.979491 -0.001269 1 1 1
0.2 -0.979491 0.001268 1 1 1
0.8 0.0672464 0.244001 1 1 1
-0.55 0.336473 -0.22674 1 1 1
0.55 0.189306 -0.184789 1 1 1
-0.2 -0.567047 -0.201115 1 1 1
0.2 -0.945719 -0.123099 1 1 1
-0.2 -0.458546 0.0107457 1 1 1
0.55 0.834102 -0.0107275 1 1 1
-0.55 -0.0300944 0.151494 1 1 1
0.55 0.607667 -0.238985 1 1 1
0.8 0.585058 -0.0599245 1 1 1
0.55 -0.39424 0.239235 1 1 1
-0.8 0.486517 -0.164814 1 1 1
-0.55 -0.134376 -0.170717 1 1 1
-0.2 0.480484 -0.0988257 1 1 1
-0.55 -0.451373 0.246721 1 1 1
-0.8 0.52519 -0.139393 1 1 1
0.8 0.388774 0.206344 1 1 1
-0.2 0.584526 -0.212287 1 1 1
0.2 -0.974836 -0.047291 1 1 1
0.2 0.473274 -0.0810909 1 1 1
0.8 0.356727 0.215107 1 1 1
-0.2 0.683628 -0.24683 1 1 1
-0.55 0.830394 0.0417027 1 1 1
0.55 0.692986 0.210013 1 1 1
0.8 0.382605 -0.207247 1 1 1
0.8 0.546304 0.120041 1 1 1
-0.8 0.0672464 -0.244001 1 1 1
-0.2 0.69988 -0.248691 1 1 1
0.8 -0.540402 0.125501 1 1 1
-0.55 0.109402 0.163042 1 1 1
-0.2 -0.857816 -0.212138 1 1 1
0.55 0.320286 0.222696 1 1 1
0.2 0.92168 0.157471 1 1 1
-0.2 0.517311 -0.156065 1 1 1
-0.2 -0.884197 -0.193639 1 1 1
-0.8 0.321611 -0.22287 1 1 1
-0.2 0.460125 0.0282623 1 1 1
0.55 -0.655822 -0.225933 1 1 1
0.2 0.712184 -0.249269 1 1 1
-0.55 -0.52188 -0.249562 1 1 1
-0.8 0.0114189 -0.244654 1 1 1
0.8 0.409764 0.199973 1 1 1
0.55 0.50103 -0.249129 1 1 1
0.2 -0.489591 -0.116723 1 1 1
-0.55 0.647994 0.228215 1 1 1
0.2 -0.817671 0.231497 1 1 1
0.55 -0.222276 0.195079 1 1 1
-0.55 0.577931 -0.24488 1 1 1
0.8 -0.14574 -0.241456 1 1 1
0.2 -0.618002 0.22894 1 1 1
0.55 0.523313 -0.248997 1 1 1
-0.2 -0.482843 -0.103273 1 1 1
-0.8 -0.0164152 0.244687 1 1 1
-0.8 -0.302943 0.225931 1 1 1
-0.55 -0.744547 0.176777 1 1 1
-0.55 -0.656368 -0.225725 1 1 1
0.55 0.172599 0.180087 1 1 1
0.55 -0.708329 0.201371 1 1 1
-0.8 0.559802 0.102821 1 1 1
0.55 0.814728 -0.089061 1 1 1
0.55 -0.814506 -0.089896 1 1 1
-0.55 0.278228 0.210801 1 1 1
0.2 -0.514996 0.152894 1 1 1
0.8 0.0656608 -0.244081 1 1 1
0.8 -0.569559 -0.089896 1 1 1
0.55 -0.758889 -0.164052 1 1 1
-0.8 -0.595984 -0.024504 1 1 1
0.55 -0.0296659 0.151772 1 1 1
-0.55 -0.542035 0.248896 1 1 1
0.8 0.590202 0.0450651 1 1 1
-0.55 0.792796 -0.125759 1 1 1
-0.55 -0.246523 -0.202387 1 1 1
0.8 0.372768 0.210856 1 1 1
-0.8 -0.597329 -0.008168 1 1 1
0.2 -0.889781 0.188978 1 1 1
0.8 -0.338964 0.219692 1 1 1
-0.2 0.57081 -0.203446 1 1 1
-0.2 -0.967821 -0.074335 1 1 1
0.2 -0.977681 0.0285472 1 1 1
0.8 0.490761 -0.161966 1 1 1
-0.8 -0.394171 0.204972 1 1 1
0.55 0.0274412 0.151515 1 1 1
-0.55 0.106602 -0.163079 1 1 1
0.55 0.559071 -0.247113 1 1 1
0.8 0.540719 -0.125349 1 1 1
-0.55 -0.592829 -0.242486 1 1 1
-0.55 0 0.1495 1 1 1
-0.2 -0.937971 0.13598 1 1 1
-0.2 0.969955 0.0663137 1 1 1
0.8 0.476657 -0.170217 1 1 1
-0.8 -0.0624424 -0.24367 1 1 1
0.2 0.463042 0.0463407 1 1 1
-0.55 -0.434143 0.245196 1 1 1
-0.8 -0.4305 -0.193253 1 1 1
-0.8 -0.468483 0.175262 1 1 1
-0.2 -0.534826 0.174515 1 1 1
-0.55 -0.632125 0.23345 1 1 1
0.2 0.482843 -0.103272 1 1 1
-0.8 0.22661 0.235687 1 1 1
0.8 -0.0426795 -0.244364 1 1 1
-0.8 0.249465 -0.233422 1 1 1
0.2 0.952958 0.109925 1 1 1
0.2 -0.639413 0.236547 1 1 1
-0.55 0.539397 0.248902 1 1 1
0.8 0.595615 0.0208533 1 1 1
-0.2 -0.623072 0.23087 1 1 1
0.8 0.0459626 -0.244323 1 1 1
-0.2 0.501678 -0.13597 1 1 1
-0.2 0.817671 0.231497 1 1 1
-0.8 -0.566095 0.095671 1 1 1
0.55 -0.216214 -0.193253 1 1 1
-0.2 0.866649 -0.206355 1 1 1
0.55 0.396578 -0.238835 1 1 1
0.2 -0.473803 0.0824735 1 1 1
-0.55 0.325199 0.223806 1 1 1
-0.55 -0.138185 0.170768 1 1 1
0.55 0.189729 0.18518 1 1 1
-0.55 0.466175 -0.248197 1 1 1
0.8 -0.222969 0.235738 1 1 1
-0.2 -0.856017 0.212979 1 1 1
-0.8 0.262387 0.231534 1 1 1
0.55 0.0451417 -0.152491 1 1 1
-0.8 -0.502988 -0.155015 1 1 1
0.55 -0.175214 0.181113 1 1 1
-0.55 0.141313 0.17144 1 1 1
-0.8 0.59696 -0.00754089 1 1 1
0.2 -0.785409 -0.242022 1 1 1
0.8 -0.502558 -0.155314 1 1 1
0.55 -0.448501 -0.246467 1 1 1
0.2 -0.923683 -0.155249 1 1 1
-0.2 -0.474996 -0.0855844 1 1 1
-0.2 -0.565323 0.19991 1 1 1
-0.8 -0.548507 0.117849 1 1 1
0.55 0.311374 -0.220073 1 1 1
0.8 -0.252236 -0.233277 1 1 1
-0.8 -0.0432912 -0.244056 1 1 1
0.8 -0.354327 -0.21575 1 1 1
0.8 -0.102225 -0.243057 1 1 1
0.8 0.245528 0.233815 1 1 1
0.2 0.881964 -0.195503 1 1 1
0.55 0.670177 -0.220896 1 1 1
