0.446796 0.574331 -0.170935
0.343189 0.794967 0.264309
0.127266 -0.804646 -0.150374
0.324083 0.724156 0.438895
-0.0415133 0.106953 -0.653614
0.407257 0.267386 -0.295078
0.224986 -0.783399 0.187361
0.246591 -0.751952 0.188861
0.0627447 0.374158 0.697295
-0.429841 0.181832 -0.219195
-0.374609 -0.133792 0.300871
-0.339212 0.605452 -0.327038
0.123412 0.620544 0.615795
0.30491 -0.421899 -0.0572812
0.367167 0.0341813 0.485808
0.201855 -0.010206 0.599829
-0.182015 -0.682694 0.275182
0.257366 -0.0581727 0.5538
-0.145764 -0.266912 0.413978
-0.0187217 -0.0487427 -0.778156
0.0765996 -0.49956 0.478673
-0.120065 0.0804696 0.649659
0.270288 -0.108461 -0.490063
-0.350938 -0.38203 -0.122936
-0.435006 -0.0696273 -0.0966195
0.298596 0.646653 0.535453
0.0459589 0.888685 0.329621
0.389908 0.744145 0.286596
-0.327875 0.753682 -0.182989
0.156078 -0.316464 0.466114
-0.379834 0.529301 -0.303345
-0.114816 -0.583985 -0.248646
-0.0787505 -0.884412 -0.181847
-0.164057 0.887324 0.162203
-0.30836 0.669587 -0.320576
0.451377 0.369574 0.500099
0.376962 0.665744 -0.237427
0.179933 -0.536822 -0.274196
0.511279 -0.11552 0.178826
-0.501992 0.644493 0.233042
0.409852 0.685519 0.372531
-0.0550131 0.0947761 -0.624465
-0.336859 -0.4004 0.132158
-0.488559 0.288455 -0.125492
0.245083 -0.667057 0.286964
-0.297142 -0.44935 -0.192249
-0.419227 -0.112672 -0.0931945
-0.32365 -0.253643 -0.40677
0.367094 -0.550902 0.0889145
0.511196 0.218946 0.374773
0.401345 0.758491 0.134183
0.256357 0.836277 -0.117471
0.0327453 0.488212 -0.50649
0.536761 0.305869 0.339058
-0.433669 -0.00425664 0.295835
-0.138462 -0.726026 0.25556
-0.45026 0.64177 -0.0310059
-0.165562 0.644828 -0.424528
0.515784 -0.105923 0.0706458
-0.4259 0.601191 -0.174177
0.364779 -0.560845 0.0546791
0.48535 0.669714 0.180211
-0.340626 -0.43309 0.109721
-0.31126 -0.566471 -0.0100582
-0.264492 -0.483975 0.357775
0.137726 -0.326712 -0.581361
-0.414979 0.590916 -0.210988
0.564 0.399068 0.230361
0.10001 -0.321276 0.474469
-0.211586 -0.874256 0.141774
0.347546 -0.319685 0.139067
-0.0737108 0.0213005 -0.626084
0.0896323 -0.274311 0.477234
0.188909 -0.510554 -0.473448
-0.211135 -0.53951 -0.277825
-0.281016 -0.0410907 -0.484912
-0.200764 -0.80694 0.202828
0.176078 0.893341 0.0275046
0.0709829 0.0407848 -0.663335
-0.0776553 0.878172 -0.169557
0.206897 -0.931288 0.0788621
0.251902 0.210337 -0.464489
-0.194835 0.878509 0.0423511
-0.216746 -0.530473 -0.415541
0.310567 0.0595654 -0.438472
-0.367898 0.507635 -0.330956
-0.0406561 0.804206 -0.297508
0.285966 -0.441036 0.334205
0.331156 0.128856 -0.386917
5.54811e-06 -0.56254 -0.487136
-0.0247395 0.807825 0.492743
0.508677 0.593367 0.336626
0.354199 -0.53446 0.265689
0.337069 -0.599645 -0.0128696
0.436599 -0.121878 0.00464506
0.319373 -0.438525 -0.314404
0.460979 0.62568 -0.108142
-0.147172 0.822397 -0.248641
0.251306 -0.720469 -0.108349
-0.181858 0.0258098 0.615768
0.347571 -0.371549 -0.257171
-0.340826 -0.446999 0.148533
0.0657348 0.90919 -0.0463243
0.177589 0.0763918 -0.505045
0.22224 -0.882839 0.0846105
-0.221681 -0.59497 -0.122394
0.110555 -0.245617 0.482618
0.342125 -0.318382 -0.367798
-0.253957 -0.415055 -0.494041
0.519755 0.123189 0.116723
-0.0823064 -0.577077 -0.349066
0.411992 0.38264 -0.296229
-0.282287 -0.557908 0.346564
0.307697 -0.386367 -0.417128
-0.224261 -0.774904 0.198678
-0.217247 -0.733964 0.235391
-0.346732 -0.317023 -0.328254
0.354127 -0.138076 0.344545
-0.305951 -0.464494 -0.340891
-0.256025 -0.788722 0.130243
0.287938 -0.135966 -0.471291
-0.372142 0.0882879 -0.347505
0.429428 0.631185 0.403587
-0.310744 -0.441349 0.0091773
-0.114156 0.903965 0.0454215
0.406171 -0.115936 0.16811
-0.185555 0.189243 -0.471485
-0.281929 -0.833691 0.0350136
-0.492899 0.431135 0.397663
0.082102 0.890354 0.314809
-0.327542 0.121329 0.556978
-0.270405 -0.925301 -0.0126683
-0.417939 0.000773148 0.356173
0.481802 0.279921 -0.163476
0.185986 -0.891338 0.160439
0.298121 0.601391 0.563832
0.362986 0.585593 0.522895
-0.00736662 0.0710384 -0.71636
-0.356247 -0.0374917 0.441736
0.177132 -0.950005 -0.145822
-0.0379338 0.725275 0.561161
-0.34427 0.362744 -0.39657
0.30153 -0.218554 -0.450982
0.432183 0.102486 -0.267169
-0.334895 0.802929 0.156378
0.239968 0.717359 -0.341871
-0.244533 -0.316452 0.301554
-0.407841 -0.120097 -0.247394
-0.304745 -0.667246 0.193379
-0.301112 -0.0786327 0.470258
0.0672941 -0.235199 0.487649
-0.354811 0.718655 -0.18498
-0.450379 -0.140707 0.235451
0.0718329 0.26008 0.709998
0.281527 0.532887 0.598975
-0.132181 -0.747169 -0.171337
-0.328569 -0.33183 0.132467
0.482499 0.186621 -0.120987
0.533774 -0.0743073 0.207797
0.242798 -0.330935 0.357761
-0.383241 -0.139302 0.242121
-0.0424067 0.779951 -0.326508
0.144582 0.0241791 0.631893
-0.435139 0.0322414 0.320393
-0.0105182 0.1117 0.681441
-0.245328 -0.524996 -0.345831
-0.00769274 0.90095 0.27682
-0.314542 -0.617115 0.239041
-0.296891 0.271774 -0.463938
0.161363 0.637086 0.598851
0.549027 -0.11338 0.178203
0.0350038 0.904281 0.264385
-0.427699 0.0804394 0.407888
-0.237163 0.528136 0.587608
0.586335 0.0396947 0.238941
-0.373024 0.773104 0.220512
-0.280388 -0.109318 0.46373
0.556291 0.440094 0.239628
0.532471 0.592086 0.25668
0.53786 0.44441 0.309198
0.264141 -0.0237087 0.557085
0.166891 -0.532811 -0.454615
-0.325264 -0.433843 -0.320351
0.14814 0.878702 -0.125111
-0.436383 0.663957 0.336526
0.282137 0.794105 -0.193384
-0.438829 -0.114752 0.136148
-0.00934666 -0.408186 0.470205
0.0518095 -0.564131 -0.489879
0.285669 -0.792991 0.0364084
-0.561543 0.432498 0.11452
0.159406 0.0372173 -0.530766
-0.150376 0.285567 0.688421
-0.211246 -0.662428 0.284017
-0.302895 -0.531586 0.333719
0.515993 0.141585 0.0218907
0.367554 -0.544054 0.146145
0.15124 0.899795 0.163964
0.418073 0.604208 0.4393
-0.510394 0.485253 -0.0534943
-0.168778 0.444464 -0.495383
0.0923946 -0.216609 0.50202
0.40668 0.428523 -0.295603
0.537899 0.516584 0.282978
0.419921 0.246644 0.533847
0.349262 -0.356102 -0.191661
-0.0373523 -0.760374 -0.206544
-0.245989 0.681709 0.509263
0.2807 -0.593678 0.337973
-0.437461 -0.112079 0.0313344
0.158691 -0.529556 0.424595
0.244299 -0.50672 -0.288058
-0.211808 -0.284666 -0.551271
-0.23594 -0.477125 -0.488391
-0.000149977 0.918119 0.122692
0.0448436 0.00456829 -0.737838
0.192543 -0.289391 -0.539316
-0.550476 0.0400478 0.237477
-0.499331 0.566877 -0.0200021
-0.161952 -0.559046 -0.269713
0.359694 0.307128 -0.400809
-0.306153 -0.616322 -0.0332174
0.174903 -1.0544 0.133146
-0.181965 -0.409403 0.426626
-0.449882 -0.157485 0.123441
-0.00543891 0.485538 -0.509615
0.0521561 -0.824783 -0.17372
0.495448 -0.0316051 0.0733875
0.0400329 -0.97697 -0.18493
-0.1841 -0.049544 0.572221
0.392747 0.757082 0.21381
0.160005 0.293239 0.692265
-0.0357064 -0.069525 -0.651398
-0.217002 0.866491 -0.0725818
-0.447449 0.429512 -0.202336
-0.263478 -0.188986 0.371174
-0.0216537 0.131969 -0.677275
-0.0478737 0.145542 -0.610791
0.316945 0.157002 -0.40316
-0.00675738 0.702755 0.575892
-0.488259 -0.141129 0.152328
-0.459094 -0.0117665 0.00854296
-0.460463 0.0330426 -0.102564
0.0999883 0.305184 -0.536013
0.126489 -0.896144 0.213832
0.609274 0.0481776 0.20989
-0.0815183 -0.701588 -0.204941
-0.359876 0.545808 -0.331769
0.282865 -0.483253 -0.313964
0.0416398 0.872956 -0.187578
-0.220745 -0.84052 0.147095
-0.385398 -0.606069 0.134661
0.0288259 -0.117651 -0.627422
-0.190258 0.728691 0.514608
0.213346 -0.490622 0.441341
-0.0343564 0.194113 -0.601462
-0.452119 0.22775 0.481654
-0.123333 0.322514 0.685811
-0.216154 -0.316906 -0.535324
-0.532496 0.404226 0.327727
-0.259123 -0.964863 -0.0060077
-0.0902599 -0.559888 -0.473661
-0.227343 0.0511211 -0.499359
-0.0346261 -0.0986122 0.593809
-0.558329 0.0513595 0.196827
0.54514 0.189744 0.0995251
0.28808 -0.76993 0.0674978
-0.497587 0.157548 -0.0544278
0.49816 0.495761 0.397515
0.381006 0.76001 -0.0597751
-0.284202 0.787948 -0.195131
0.0632068 -0.326331 0.466599
0.356736 0.635143 -0.30312
0.1998 -0.675623 -0.127346
0.279 0.447631 -0.45065
0.175595 0.83684 -0.221564
0.351565 0.27436 -0.409497
-0.256849 0.412229 0.606558
-0.0361558 -0.0737964 -0.693631
0.265268 0.365569 0.650478
0.221459 0.871497 0.230279
0.289178 -0.441468 -0.210413
-0.353504 0.543573 0.491855
0.515545 0.119462 0.0665666
-0.251917 0.366707 -0.470842
0.363943 -0.177043 0.113109
0.202119 -0.259628 0.411541
-0.22693 0.59418 0.568422
0.316613 0.7989 0.321096
-0.433033 0.54717 0.434011
0.298245 -0.637904 -0.0689822
0.323042 -0.235836 0.22098
-0.55595 0.410098 0.0314764
-0.447976 -0.198583 0.125079
-0.438627 0.10573 -0.205895
0.280718 0.0909448 0.604088
0.471613 0.0709076 -0.100253
-0.0262644 -0.259773 0.471104
-0.207273 0.23008 -0.49559
0.31453 -0.707491 -0.0444567
0.125558 -0.541531 -0.545994
-0.364328 0.76393 0.305502
0.293414 -0.452126 -0.076027
-0.350963 -0.237277 0.104597
-0.000844922 0.866052 -0.209788
0.369862 -0.200718 0.0471653
-0.122869 -0.789531 -0.169736
-0.389451 -0.189947 -0.240277
-0.449028 0.121156 -0.167792
-0.111431 0.81438 -0.272946
-0.206094 0.439405 -0.474856
0.156534 0.599924 -0.460373
-0.387524 -0.27798 -0.0586173
-0.294584 -0.443166 -0.418839
-0.415434 0.717443 0.303448
0.45104 0.684854 0.263627
-0.244805 0.855584 0.0638733
-0.00295761 -0.563688 -0.402616
0.526925 0.385484 -0.0461709
0.0949987 0.721049 -0.393904
-0.46907 0.0376202 -0.0143694
0.239951 0.583239 0.600486
0.15602 0.271161 -0.47368
0.339778 -0.115134 0.390873
-0.0713295 -1.00238 0.199121
-0.234714 0.00590361 0.57837
-0.352074 0.0103946 0.476843
-0.364954 0.634699 -0.273982
-0.0775005 0.811999 0.479777
0.0584699 0.292976 -0.538529
-0.0380721 0.4621 0.665577
-0.424493 0.022805 -0.289334
-0.328509 0.258103 0.597258
0.211031 0.10134 0.640493
-0.553757 0.501594 0.0706983
0.363965 -0.219559 -0.329411
0.005 -0.533906 0.444788
-0.0272944 0.825255 -0.271675
-0.297225 -0.605332 0.278868
-0.423551 -0.152048 0.0648736
-0.542186 0.26214 0.31342
0.446066 -0.105427 0.0515898
0.484734 0.403524 -0.166331
0.291167 -0.419428 -0.153532
-0.168624 0.708811 -0.380445
-0.173427 -0.752475 -0.148058
-0.333762 -0.122804 -0.418434
0.42834 -0.0321131 -0.192509
0.00100871 -0.78058 -0.199287
0.314242 -0.437449 0.256541
0.205106 0.436447 0.664682
-0.519594 0.316692 0.364411
-0.137214 0.408493 0.66098
-0.134641 0.464768 -0.50133
-0.16228 0.890399 0.0390256
-0.264181 -0.517869 -0.0756995
0.185358 0.886111 0.222191
-0.258873 -0.880992 0.0421237
-0.19589 -0.911543 0.152277
-0.029406 -0.0838716 -0.74206
0.471537 0.0237211 0.216306
-0.201585 -0.0508962 -0.532892
0.385713 -0.276346 -0.0658837
0.595094 0.0747865 0.153729
-0.386971 -0.256165 0.064502
0.103355 -0.660961 0.312739
0.101483 -0.546081 -0.576092
-0.533252 0.494032 0.318993
-0.00868196 -0.646737 0.323377
0.307391 0.085425 0.580122
0.375429 -0.197908 -0.30092
-0.0852187 0.229488 0.712027
0.00554873 0.447706 -0.523948
-0.448576 0.16663 0.465481
0.299589 -0.474948 0.337241
-0.553802 0.329091 0.0544322
-0.034786 0.03533 0.649158
0.315187 -0.762045 -0.0426799
0.348012 -0.222898 0.0640804
-0.374583 -0.56477 0.156926
0.330342 0.446181 -0.414686
-0.0833417 -0.331476 0.465116
-0.0336822 0.399943 -0.539811
0.240897 -0.915893 0.00995528
0.214294 -0.0146808 -0.516993
0.454968 0.691161 0.0665685
0.46906 0.426266 -0.190226
0.391313 0.762117 -0.00671517
-0.211788 0.816304 0.416051
-0.449733 -0.000747405 -0.165063
0.22395 -0.941603 0.032939
-0.33734 -0.262792 -0.373301
0.444739 -0.185868 -0.00603252
-0.308653 0.189445 -0.426795
0.239511 0.764174 0.467338
-0.0330904 0.160086 0.694924
-0.298546 -0.386634 0.248343
0.45306 0.635105 0.366827
0.321846 -0.182756 0.296119
0.231248 -1.01808 0.000538661
0.303439 -0.18227 0.349794
0.223698 -0.850953 0.107306
-0.143713 -0.932142 -0.195388
0.213224 0.0186847 -0.504511
-0.172414 -0.557001 0.388216
0.0444962 0.511748 0.657341
0.249423 0.728774 0.500452
0.448293 0.301097 -0.228902
-0.490811 0.0857467 0.131108
0.457908 0.399624 -0.213882
-0.541728 0.238905 0.246206
-0.531625 0.450305 0.324367
0.085246 0.772102 -0.342111
-0.363188 -0.35744 -0.0896334
-0.394394 -0.144619 -0.275326
-0.311138 -0.372732 -0.429585
0.132625 0.0535969 -0.547716
-0.223649 -0.522172 -0.152605
-0.310385 -0.301133 -0.438038
0.142963 -0.860956 0.220886
-0.118764 -0.095605 -0.56264
0.586281 -0.0575595 0.213328
-0.208451 0.695176 -0.374829
0.112235 -0.0220537 -0.615785
-0.0435498 0.234922 -0.513491
0.284038 -0.0824512 0.509283
-0.314932 0.146955 0.585917
-0.290453 0.0912138 0.57171
-0.463738 -0.196162 0.193307
0.571565 -0.00716997 0.172027
-0.166095 0.774275 -0.305869
-0.273026 0.835712 0.247348
-0.440675 0.218894 -0.209113
-0.128669 0.655113 0.581858
0.476082 0.15005 -0.118773
0.260343 0.687135 -0.358522
0.27665 -0.616064 -0.0866235
0.385497 -0.293458 -0.18398
0.366193 0.651204 -0.271962
-0.00774648 -0.00889241 -0.761771
-0.427582 0.274105 -0.235979
0.542526 0.188967 0.139719
-0.097241 -0.977726 -0.205799
-0.161864 0.317522 0.679321
-0.186255 -0.760517 0.233009
-0.251393 -0.493692 -0.444498
-0.398096 -0.153189 -0.235793
-0.115956 -0.608234 -0.221258
-0.481398 0.52841 -0.0886809
-0.533259 0.187999 0.155318
-0.425415 -0.136916 0.110152
-0.368899 -0.200447 -0.326016
0.518992 -0.134878 0.093733
-0.451522 -0.0670511 0.0700273
0.363929 -0.269959 -0.293139
0.187322 -0.732655 -0.131153
-0.404585 -0.25197 0.00104042
-0.479863 0.0709721 0.212076
0.0529092 0.708705 -0.40699
0.234159 -0.23337 -0.527414
0.150629 -1.01961 0.193864
0.283103 0.846231 -0.00736781
-0.198136 0.868932 0.25351
-0.15952 -0.517308 0.432637
0.0187932 0.412297 -0.534785
-0.303802 -0.837876 -0.0125143
0.196246 -0.431482 -0.525752
-0.558089 -0.00687542 0.287017
0.468965 0.171162 0.420207
-0.17153 -0.453334 -0.572942
0.0305199 -0.717984 -0.214287
-0.451412 0.701927 0.225945
0.231142 -0.0480811 0.57405
0.547707 0.534791 0.167882
0.0549236 0.917167 0.0672829
-0.262046 0.260324 -0.467317
0.0183217 -0.528937 -0.61098
0.389165 0.567806 0.50338
-0.34192 -0.219807 0.163609
0.348046 -0.356668 0.132712
0.311624 0.683864 -0.312877
-0.486782 0.171965 0.390253
0.449571 -0.120668 0.142994
0.00743819 0.214465 0.714665
0.00225527 0.347371 -0.544347
-0.383508 0.687391 -0.165781
0.0588799 -0.829096 0.219544
0.253401 -0.0887754 0.535612
-0.250831 0.483344 0.588363
-0.288377 0.106786 -0.436197
0.217376 -0.227485 0.404409
0.407027 0.53806 0.495238
0.243191 0.765585 -0.279397
0.361707 -0.638385 0.0493383
-0.0307385 -0.147051 -0.640881
0.322223 -0.742026 0.0250293
0.0662885 0.802849 -0.301579
0.00676664 0.140129 0.69423
0.163867 0.778642 0.495076
0.507657 0.112007 0.230049
-0.337041 -0.227585 -0.382838
0.0291041 0.372809 -0.539005
0.0288924 -0.0204449 -0.759129
-0.239192 0.675557 -0.371296
0.194715 0.70979 0.543833
-0.314735 0.509784 -0.390471
-0.41846 -0.172863 0.0361474
0.284166 0.646479 -0.37576
0.235983 0.826015 0.375633
0.41243 0.639909 -0.195532
0.313482 -0.392184 -0.0402918
0.542065 0.483609 0.274397
-0.393868 -0.10048 0.314812
-0.00427543 0.912945 0.206992
0.44468 -0.0621624 0.186533
0.161423 0.741605 0.532291
0.0763856 -0.956597 0.209964
0.299446 0.557767 -0.404977
-0.073674 0.080995 0.658785
-0.524543 0.177269 0.187533
0.343516 -0.0372232 0.460899
0.324263 0.80718 -0.0484899
0.0263437 0.0759787 -0.706224
0.249306 -0.582199 -0.113657
-0.151794 -0.629179 -0.184017
-0.260649 -0.213404 0.342803
0.294385 0.831925 -0.0393206
0.195025 0.263717 0.686915
0.534376 0.153277 0.0982408
0.344375 -0.00701562 0.481126
0.0686389 0.209827 -0.531085
0.283804 -0.870071 -0.0467341
-0.476 0.0739323 -0.0186117
0.334846 -0.357626 0.185105
-0.212305 -0.497435 0.411085
-0.0950149 0.891563 0.270581
-0.0372596 -0.703825 0.271631
0.461788 0.257792 -0.200302
0.0712191 0.83573 -0.257544
0.420108 0.200918 0.509246
-0.450734 -0.0840928 0.14954
0.202467 0.882174 0.176768
-0.448349 -0.0474985 0.00565735
0.313072 0.786902 0.355366
-0.034777 0.839924 0.443442
0.547982 0.386694 0.00589791
-0.170328 -0.369657 0.41813
0.0921429 -1.07685 0.205021
-0.558041 0.464204 0.0491067
0.235297 0.511501 -0.460744
0.549386 0.538579 0.115736
-0.00908726 -1.01817 -0.201112
0.438946 0.333227 -0.242491
-0.449143 -0.0627141 0.243606
-0.336939 -0.244552 0.13559
-0.162353 -0.968284 0.185406
-0.263186 0.481577 -0.435636
0.350473 0.0523785 -0.411654
0.356661 0.124402 0.546163
-0.417295 0.635073 -0.156866
0.035528 -0.783509 0.230893
0.486833 0.0800256 -0.0122815
-0.447359 0.350155 -0.205873
-0.080934 -0.178351 -0.65353
0.363303 -0.00355337 -0.394847
-0.18745 0.836939 0.393456
0.333029 -0.730087 -0.00564523
-0.340561 -0.304671 0.0380132
0.347143 -0.397519 0.0703093
0.0803074 0.911306 -0.0111403
0.21727 -1.0511 0.0337734
0.335388 -0.309441 0.0632142
-0.117675 -0.00111896 0.628097
0.354387 -0.210431 0.113336
0.189141 -1.00029 0.104143
-0.0564873 -0.847373 0.208713
0.361782 0.23746 -0.382046
0.378205 0.448478 -0.340733
0.313962 -0.52553 0.358192
0.513137 0.285432 0.391291
0.096009 0.820501 0.463666
0.448146 -0.0480031 0.225276
-0.322878 -0.331737 0.0588693
-0.453253 0.496754 0.445139
0.523157 0.624794 0.119237
0.19397 -0.0454787 0.595333
-0.0176389 0.882848 0.34661
0.029343 -0.944522 -0.177022
-0.411271 0.296594 -0.272937
0.251828 0.157756 -0.462027
0.0756213 0.241513 -0.51167
-0.171935 0.406081 0.649269
-0.032134 0.913466 0.185016
-0.12426 -0.293516 0.43656
-0.255123 0.758728 -0.272943
-0.368281 -0.124258 0.335123
0.406663 0.55954 -0.268055
-0.188447 -0.182051 0.44017
0.135934 -0.0762199 -0.570037
0.268703 -0.236582 -0.468116
-0.286334 -0.478194 -0.0378068
0.209646 0.153452 0.656062
-0.202375 -0.00527596 0.594004
-0.290371 -0.969355 -0.0857349
0.18692 -0.288792 0.434556
-0.487345 0.249314 -0.120067
0.439968 0.423154 -0.2394
0.277627 -0.282494 0.274028
0.344577 -0.165521 -0.388646
-0.324011 0.741563 0.384482
0.159985 0.796978 -0.285993
0.452102 0.0304371 -0.171375
0.241807 -0.000191687 -0.493519
-0.247891 -0.399113 0.330778
-0.530734 0.165718 0.0760042
-0.247623 0.851734 0.186988
0.540067 0.182682 0.212197
-0.0558976 0.660446 -0.438086
-0.0356906 0.78714 0.518188
0.0206923 -0.29441 -0.634882
0.132312 -0.543421 -0.511053
0.116456 0.908251 0.169076
-0.355069 -0.350672 -0.217594
-0.553401 0.523347 0.14316
-0.123234 -1.00776 0.192245
0.364804 0.785665 0.178907
0.0371848 0.916617 0.00892137
-0.410344 -0.150082 -0.131399
-0.349845 -0.149909 -0.382571
0.0671326 0.067955 0.658021
0.218042 -0.994116 0.0335137
-0.155966 0.390512 -0.518462
0.3277 -0.520866 0.32356
0.418656 -0.0609393 -0.233371
-0.0547435 -0.279551 -0.632879
-0.220674 -0.95419 0.0797555
-0.241133 -0.90957 0.0580513
-0.505121 0.624766 0.0712634
0.529111 0.137356 0.170495
-0.518206 0.359637 -0.0712667
0.278204 0.248942 -0.45867
0.205409 -0.51884 -0.255145
-0.00734857 -0.0446877 0.617981
-0.32558 -0.358057 -0.390491
-0.00873155 -0.670667 0.297642
-0.547733 0.461724 0.00862174
-0.387852 0.735806 0.00271586
-0.328054 0.697255 -0.27147
0.265522 0.855489 0.163418
-0.0902114 0.391848 -0.541023
-0.267811 0.650019 0.513155
-0.429829 0.245266 0.508807
-0.553653 0.468125 0.246037
-0.100467 0.0292373 0.639975
0.357308 -0.499867 0.159629
-0.280447 0.424061 -0.434957
0.356667 -0.675627 0.0636936
0.328581 0.814947 0.202525
0.241481 0.0834519 0.619305
-0.165678 0.619089 0.588449
-0.196627 -0.0972554 0.539977
-0.558918 0.313313 0.106827
0.0940594 0.448713 0.680413
0.538892 0.305761 -0.0181379
0.122728 -0.564213 -0.331462
-0.18073 -0.724396 0.252379
-0.320422 -0.348448 0.183365
0.131577 0.403125 0.689919
-0.29011 0.52484 0.552774
0.214341 0.298833 -0.477443
-0.282708 -0.0381765 0.51248
0.453045 0.692726 0.229792
-0.300869 -0.332324 0.230347
0.505089 0.290893 -0.118621
0.0333386 -0.564786 -0.402676
-0.415696 0.201204 -0.249689
-0.183094 -0.201174 -0.58795
0.351386 -0.24846 0.0342376
-0.563764 0.358542 0.202197
0.362329 0.441063 -0.371025
0.177625 0.428262 -0.518158
0.326676 0.76988 -0.1708
0.271187 0.684256 -0.353793
0.520473 0.101983 0.159595
0.0525994 0.523049 -0.495351
0.0653899 -0.485883 -0.637345
-0.375241 0.746688 -0.0296813
-0.345804 0.139316 -0.344641
-0.245096 -1.03982 0.013164
0.137698 -0.855435 -0.150605
-0.0592317 -0.249366 0.467683
0.35286 0.781494 -0.0741874
0.196443 -0.147184 -0.529129
-0.180025 -0.829962 -0.167986
-0.389829 -0.0848148 -0.330562
0.136837 0.662176 0.591301
-0.396096 0.0838601 -0.321887
0.00131146 0.646761 0.604081
-0.284192 -0.479286 -0.397721
0.40502 -0.148978 -0.211813
0.150534 -0.79145 0.242064
-0.287796 0.0529604 0.558194
0.421211 0.513394 -0.249785
0.430519 0.359962 0.527878
-0.27839 0.733937 -0.284212
0.25354 -0.859689 0.0332117
-0.340857 -0.563823 0.278061
0.513526 0.64356 0.163945
0.210892 -0.525351 -0.291201
-0.231656 -0.524719 -0.250683
0.0658164 -0.552151 -0.583174
-0.503428 0.639436 0.105358
0.10353 -0.0777725 0.595084
-0.169845 0.217901 -0.482646
0.557622 0.375642 0.0378179
0.423412 -0.0567923 -0.168117
-0.270396 -0.467606 -0.070455
-0.453537 0.0406207 -0.16577
0.0350958 -0.66553 -0.224294
-0.424132 0.0375936 0.362455
-0.351956 0.774624 -0.00817422
-0.379408 -0.316394 -0.125067
-0.299576 -0.692971 0.168474
0.442909 0.0676067 0.391474
0.307834 0.835275 0.0653563
-0.420598 -0.0960139 0.238774
-0.0338091 -0.207763 -0.658339
-0.500473 0.168831 0.348124
-0.131623 -0.808159 0.216387
0.370994 0.277733 -0.379716
0.113946 -0.0869049 -0.594299
0.10249 -0.945326 -0.170394
0.549248 0.216448 0.213997
-0.301555 -0.457985 -0.374838
-0.248985 -0.251774 -0.503233
0.472881 0.049101 -0.0187546
-0.200411 -0.23585 -0.574769
-0.381774 -0.233305 -0.233672
-0.382089 -0.30546 -0.0853551
0.153951 -0.067282 0.595177
-0.01404 -0.506908 -0.625057
-0.107649 0.111597 0.662253
0.00939609 0.31244 -0.542975
-0.203739 -0.964666 0.11111
0.152922 -0.481629 -0.558564
0.428029 -0.123793 -0.0872728
-0.327533 -0.388259 -0.371083
0.0903698 0.853989 -0.227845
0.156178 -0.357104 -0.557478
0.283431 -0.446351 -0.417144
0.494051 0.215574 -0.102377
0.473083 0.242187 -0.169506
-0.524936 0.282017 0.355537
0.0296883 -0.600053 0.372593
-0.414795 -0.209596 0.0484091
-0.00822381 -0.693469 -0.225592
0.379909 0.779701 0.112281
0.171562 0.773049 -0.316396
-0.0465132 -0.394597 0.47257
0.179577 0.672534 -0.412927
0.0323504 -0.244574 0.476953
-0.442793 0.306028 -0.209399
-0.0331023 0.916646 0.0805073
0.312107 -0.69485 0.149906
0.177144 0.019364 0.618599
0.538862 0.557798 0.259047
-0.161601 -0.659695 -0.169194
0.369294 0.623675 0.492145
0.0961729 0.0243967 -0.618464
0.238666 0.521356 0.620089
0.103105 -0.281453 -0.614538
0.472177 0.663359 0.00958762
0.0242555 -0.402768 -0.633857
0.260676 0.816189 -0.175487
-0.301571 0.0269239 0.533319
0.465443 0.345823 0.47725
-0.205699 0.519542 0.605909
0.0260763 0.368271 0.69915
0.404775 0.687996 -0.153968
0.0113785 -0.563169 -0.434302
0.345739 -0.112056 -0.393659
0.363452 -0.179908 0.0776762
-0.476121 0.105071 -0.0614541
-0.395287 -0.241263 -0.137181
-0.00774293 -0.350334 0.464885
-0.402888 0.746333 0.246524
0.245683 -0.0951849 -0.512945
-0.232744 -0.851416 -0.146382
-0.123338 0.380996 -0.534479
-0.529813 -0.0580727 0.170518
-0.289271 -0.95522 -0.130427
-0.343179 -0.133626 0.364497
-0.297698 -0.926554 -0.109387
-0.311384 0.775433 0.363127
-0.424467 0.0622006 -0.274945
0.112747 -0.534346 0.436884
0.282456 -0.434647 -0.122392
-0.207596 -0.628756 -0.132908
-0.254316 -0.139068 0.450206
-0.330061 -0.364427 0.153974
0.225179 -0.282153 0.377673
-0.212337 -0.535942 0.396612
-0.0833311 0.901475 0.221592
0.470517 0.165759 -0.148822
0.0278556 0.268772 -0.544434
-0.150537 -0.555412 -0.380706
-0.339259 0.799497 0.118721
-0.356431 0.668688 -0.2583
-0.389943 -0.211026 -0.208007
0.157991 -0.551985 -0.367065
-0.0701499 0.0856733 -0.593949
-0.0332035 -0.943567 -0.185023
0.429966 -0.066135 -0.0791465
-0.370244 -0.284145 -0.229046
0.461292 0.0334862 0.317511
-0.432455 -0.0468717 0.275403
0.151219 -0.555126 0.402341
-0.386202 0.157877 0.526424
0.0147521 -0.560635 0.41745
-0.16059 -0.793618 -0.15762
0.317889 -0.407031 0.231868
0.499011 0.18123 0.371593
0.309572 -0.126806 -0.44404
-0.228855 -0.209448 0.374849
-0.411159 0.166575 -0.25285
-0.523598 0.435008 -0.0404953
0.502924 0.558067 -0.0768352
-0.470898 -0.119006 0.256753
0.460003 0.666123 0.292282
0.36358 -0.163962 0.210838
-0.120641 0.415975 -0.525228
0.417449 -0.091859 -0.166508
-0.489751 -0.0135662 0.133855
-0.435888 0.621363 -0.125255
-0.524419 0.190525 0.243531
-0.325001 -0.813379 -0.0296753
0.0419868 -0.720231 0.2587
-0.293148 -0.193574 -0.457875
-0.500857 0.115627 0.0289588
0.2243 -0.0478237 -0.521736
-0.328452 0.189614 -0.397454
0.152254 0.900508 0.0653349
-0.0533172 -0.0564939 -0.732442
0.206329 0.874848 -0.0518414
0.301821 -0.568991 -0.0568541
-0.482987 -0.0766219 0.264635
0.240472 -0.990634 -0.0190213
-0.0354874 -0.332226 -0.618441
0.1399 0.105887 0.662562
0.425829 0.727228 0.112078
-0.12236 0.733533 0.540225
-0.0263539 -0.115308 -0.624383
0.396674 0.405351 -0.319834
0.410659 0.7417 0.0424714
0.312359 0.355163 0.62766
-0.244773 -0.107607 -0.511343
-0.308774 -0.761571 0.0555829
0.326244 -0.248621 -0.416232
-0.291946 0.760272 0.398146
0.0564378 -0.390767 -0.623507
-0.442152 -0.181858 0.21726
-0.00542234 -0.234004 -0.640713
0.318278 -0.495375 -0.0368365
0.222029 -0.344353 -0.504296
-0.350424 -0.192729 0.185703
-0.0719122 -0.293864 0.460425
-0.320747 0.207161 0.597367
-0.103527 0.680551 0.57568
-0.0875046 -0.0327457 0.617204
0.490139 0.437061 0.432648
0.311771 -0.208103 0.244234
-0.188655 -1.06756 0.134495
-0.140622 0.500774 -0.48621
0.0213729 0.918559 0.0528198
-0.136318 0.867101 -0.167805
-0.348227 -0.486133 0.139268
0.328378 0.733043 -0.227053
-0.192189 -0.470269 0.427537
0.247222 -0.0344188 -0.496493
0.486156 0.119557 0.350631
-0.257319 -0.0198247 -0.500827
-0.401653 0.686172 -0.122698
0.52701 0.277391 0.356717
0.297453 -0.784212 -0.0680629
-0.492563 0.337079 0.39847
-0.291645 -0.281048 -0.467839
0.235118 0.808702 -0.220647
0.423424 0.438549 -0.265258
-0.272714 0.697416 0.473248
0.372402 -0.583164 0.129572
-0.289691 0.718579 0.438868
-0.0529002 0.692039 0.577775
-0.53221 0.357707 -0.0341074
-0.044333 -0.153741 0.552978
-0.507943 -0.12963 0.191308
0.536248 0.414604 -0.0258893
-0.411204 0.274443 0.522508
-0.464162 0.418833 0.444827
-0.227899 -0.400307 0.360337
-0.31802 -0.458673 -0.29417
0.407332 -0.116835 0.222208
0.244411 0.624632 -0.416248
-0.117914 -0.0535198 0.599664
0.327855 0.0786851 -0.415757
-0.10448 0.593648 -0.463842
0.0102346 -0.869578 0.20976
0.367983 -0.645908 0.0831638
0.000634633 0.78921 0.517456
0.0766686 0.37435 -0.546753
-0.486643 0.134858 0.334199
0.561642 0.268765 0.138114
0.146168 0.898474 0.21245
-0.356471 -0.711803 0.0274474
0.157302 0.245004 0.692056
0.23834 -0.187373 0.433131
-0.292681 0.699454 -0.309925
-0.0686087 0.0472791 0.646914
0.126855 -0.556059 -0.244484
-0.0441015 0.203546 -0.54452
-0.257216 0.848029 0.10994
-0.1611 0.0125535 -0.530795
0.140691 -0.556888 -0.397116
0.388668 0.628431 -0.255764
-0.560383 0.437212 0.220595
0.546238 0.290217 0.30341
-0.066387 0.429344 0.674444
0.0610072 0.0146804 -0.693463
-0.120766 0.219274 0.700607
-0.384944 0.0263539 0.449245
-0.142711 0.68921 -0.401612
-0.353124 -0.527278 0.108045
-0.188712 0.601011 -0.435271
0.0744528 0.571952 -0.483011
0.0882766 -0.114361 -0.600781
-0.159639 -1.01287 0.1808
-0.286595 0.819395 -0.0996903
-0.0108958 -0.568827 -0.368155
0.532587 0.154749 0.141052
0.013926 0.233109 -0.571268
0.323234 -0.202813 -0.419023
0.274384 -0.767817 -0.0919789
-0.237705 -0.182516 0.398318
-0.156148 -0.164163 -0.589984
0.116454 0.837604 -0.2461
0.535695 0.342162 0.348739
0.42208 0.697748 -0.0828282
0.292372 -0.0159681 0.535373
0.245587 0.858702 -0.0483138
0.521634 0.174737 -0.00307561
-0.0783632 0.562617 0.628526
-0.430829 -0.0722051 -0.159357
-0.0498263 -0.573896 -0.360878
0.446579 0.370327 -0.233082
-0.0630276 0.390663 0.685528
-0.325802 -0.12853 0.396395
0.0394911 -0.0848795 -0.707355
-0.496847 0.656577 0.190082
0.495128 0.318631 0.425642
-0.556018 0.280111 0.116526
-0.371895 0.680328 0.389856
-0.558747 0.354943 0.0784801
0.110738 0.897393 0.26873
0.398966 0.358692 -0.320632
-0.0641441 0.0616633 -0.622227
0.188366 -0.590764 -0.159552
0.231275 -0.271137 -0.531378
-0.0630899 -0.926558 -0.185089
0.0409198 0.445579 -0.52245
-0.03886 -0.880955 -0.184642
0.338545 0.178856 -0.380933
-0.326869 -0.431595 -0.121129
0.0493965 -0.863703 0.212252
0.35008 0.150935 -0.363103
0.326635 0.323077 0.625606
0.0719865 0.116546 -0.613543
0.445845 -0.209877 0.0238154
-0.403586 0.57936 0.432557
-0.237299 -0.514363 -0.120203
0.0498982 0.731676 0.560543
0.425593 -0.0689357 -0.118002
-0.0744876 -0.0744721 -0.613826
0.393982 0.485432 0.527055
-0.282491 -0.951075 -0.0528709
-0.309284 -0.0681593 -0.458721
-0.42289 0.108338 -0.251021
0.519308 0.629004 0.232498
-0.298671 -0.571966 0.318047
-0.0447492 -0.740924 0.248269
-0.3116 -0.423949 -0.391283
0.030645 -0.0454778 0.617754
0.091144 -0.562452 -0.523858
0.315556 0.556429 0.57254
-0.125583 -0.89541 -0.185876
-0.0361122 0.755385 0.544049
0.257876 -0.934692 -0.110864
-0.224619 0.865622 0.0210669
0.366425 -0.530988 0.179849
-0.204616 -0.0875765 -0.546387
-0.00295972 -0.0844207 0.602504
0.333519 -0.471271 -0.00931588
0.0780221 0.501696 0.660837
0.450417 0.602107 0.399214
0.123288 -0.909886 -0.160188
0.36498 0.445398 0.561836
-0.431164 0.37019 -0.233278
-0.502718 -0.0603204 0.144596
-0.445153 0.404179 0.470573
-0.30164 0.821056 0.23434
-0.280443 0.834219 0.210723
0.248268 0.435886 0.647099
-0.323621 -0.386161 0.184963
0.146503 0.366942 -0.534358
-0.217357 -0.1677 -0.538531
-0.306164 -0.71774 -0.0584236
-0.000837836 0.748299 -0.370881
0.341367 -0.234079 0.186553
-0.0757792 0.278673 0.708656
0.242662 -0.757523 -0.112836
-0.2009 0.116355 -0.48928
-0.0116182 0.163969 -0.66479
0.257842 -0.932227 -0.0379293
-0.156377 0.7519 0.515558
-0.297541 0.618976 -0.367053
-0.409635 0.716356 0.0254797
-0.326514 -0.811026 -0.0672159
0.574666 -0.00208161 0.236551
-0.0719403 -0.431891 0.474766
-0.20537 0.776014 -0.285722
0.534958 -0.128619 0.143904
-0.538848 -0.0382272 0.301623
0.404913 0.708065 0.341448
-0.177754 -0.841457 0.208125
-0.223847 -0.920109 0.086849
-0.16874 -0.555918 -0.343379
0.068043 -0.0577858 -0.708455
0.34942 -0.158644 0.30692
0.214327 -0.486539 -0.467998
0.500666 0.151987 0.346932
-0.510974 -0.0475217 0.282711
0.152022 0.631325 -0.447283
0.282354 0.405155 0.635909
-0.0409637 -0.380442 -0.625305
0.20882 0.640172 -0.424908
-0.36261 -0.562078 0.111413
-0.336139 0.163086 -0.37248
0.116728 0.205952 0.692221
-0.221426 0.864719 0.15271
0.12919 -0.0587116 -0.609597
-0.37145 0.467815 0.520125
0.0607453 0.117105 0.680975
-0.253952 -0.15411 0.419323
0.242817 -0.18936 -0.494938
-0.412813 -0.166602 0.191657
-0.293135 0.392333 0.595417
0.297406 0.754487 -0.237807
0.137828 0.798381 0.480716
0.0528491 0.147829 0.694348
-0.148412 -0.454314 -0.59848
-0.12652 -0.554763 0.405495
-0.3038 -0.29745 0.226004
-0.288701 0.557732 0.542326
0.0937875 0.41043 0.690157
-0.466067 0.610304 -0.0318145
-0.532339 -0.0770242 0.215097
0.244367 -0.442389 -0.469507
0.516848 0.551136 -0.0312818
0.416336 -0.128224 -0.165669
0.439482 0.00745833 0.354345
-0.546479 -0.08908 0.260904
0.559758 0.264776 0.239427
0.300929 -0.736025 -0.0634401
-0.0102886 -0.404723 -0.638094
-0.397751 0.574161 -0.260004
0.0443005 -0.0742412 -0.744503
0.280702 -0.721996 -0.0876942
0.316721 -0.587702 0.315671
-0.530828 0.224823 0.307444
-0.161399 -0.00250762 0.614751
0.220576 0.286227 0.680109
0.434341 0.685147 0.318623
0.187258 -0.549045 -0.183001
-0.454311 0.686044 0.283338
-0.100083 0.479143 -0.503577
-0.472729 0.641986 0.317612
0.33879 -0.439353 0.0181236
0.393431 0.490142 -0.309538
-0.194407 0.793333 0.455376
-0.250946 -0.639606 -0.0944193
0.0614787 0.877274 0.361498
0.427168 -0.0806379 0.251751
-0.526759 0.198361 0.0100403
0.20802 0.829882 -0.207627
0.343497 -0.280026 -0.377486
0.555601 0.0945327 0.153797
-0.111794 -0.163329 0.523853
0.352477 -0.202211 -0.36724
0.511954 0.421712 0.394488
-0.347664 -0.375995 -0.0457378
-0.165364 0.530762 -0.471093
0.259032 0.267223 0.660423
-0.193571 -0.540771 -0.223698
0.404736 0.0416471 -0.33534
0.456315 0.00811898 0.290836
-0.417409 0.441373 0.490824
-0.178577 0.570504 -0.453911
-0.0809711 -0.938594 0.194323
0.191743 -0.957633 0.101263
-0.447109 0.0653136 -0.204718
0.356608 -0.188554 0.186487
0.433566 0.711235 0.0363646
0.203331 0.353761 -0.517803
0.39834 -0.14111 -0.246349
-0.16732 0.87068 -0.135044
0.105165 0.106988 0.666612
0.35646 -0.26397 -0.341619
-0.494381 -0.0949116 0.151859
-0.519057 0.622344 0.136111
-0.152412 -0.390005 0.440456
0.313752 -0.342028 -0.419619
0.333323 0.526778 0.568555
-0.470239 0.425483 -0.145227
-0.20583 0.0883343 0.62608
0.0196883 -0.472939 0.483621
0.129684 0.14303 0.676914
-0.190689 0.331912 0.665447
-0.170488 0.88751 0.0040415
0.325334 0.485534 0.585223
0.0398077 0.165559 -0.652377
0.00740565 0.737241 0.556897
0.603973 -0.0213818 0.23005
-0.1046 -0.910187 0.193719
-0.538402 -0.0438225 0.233097
-0.147655 -0.187927 -0.617444
-0.314473 -0.111485 0.42782
-0.496492 0.426383 -0.0924052
-0.361213 0.759712 -0.0638256
-0.243957 0.198049 -0.471288
-0.206503 0.824678 -0.208502
-0.183758 -0.327562 -0.539178
0.0569951 0.9167 0.133492
-0.296335 0.804345 -0.129605
-0.121477 0.894329 0.220339
0.358166 0.795821 0.133913
-0.36963 -0.60436 0.0654938
0.447005 -0.197955 0.0611099
0.369089 -0.0411561 -0.379072
-0.370268 0.68168 -0.211886
0.102242 -0.394082 -0.603432
0.129377 -0.339033 0.474527
0.356224 -0.345823 -0.13414
-0.282981 0.832528 0.00116575
-0.169157 0.880171 0.233183
0.216544 -0.716129 -0.120649
-0.171193 -0.638725 0.308632
0.114726 0.240123 0.699668
-0.454984 0.463028 -0.174995
0.0656633 -0.0162673 -0.711686
0.538681 0.409602 0.31526
-0.133771 0.585496 0.610086
-0.318894 -0.427254 -0.357814
-0.282503 0.00130488 -0.48682
-0.0442828 0.740432 -0.375244
0.218511 -0.439092 -0.497134
-0.282608 0.616257 0.520931
0.136946 -0.75709 0.254885
0.0679429 0.577089 0.635429
0.0889801 0.161348 -0.536439
0.280893 0.815647 -0.136138
0.0766806 0.86846 -0.193311
-0.447643 0.119657 0.418327
0.410988 -0.0960299 -0.208496
-0.443884 0.0276017 0.285636
0.293545 -0.16889 -0.461027
0.0673567 -0.568088 -0.423051
0.104907 -0.486122 -0.614107
-0.273446 -0.978428 -0.15328
0.351907 -0.0858961 0.416229
0.240634 -0.119914 0.515571
0.544958 0.511536 0.0381744
-0.284687 -0.873428 -0.115605
-0.234482 -0.716537 -0.121178
0.164288 -0.167301 0.52589
-0.241978 -0.837775 0.109519
-0.328382 -0.291335 -0.397181
-0.227681 -0.0908087 0.522825
-0.341795 -0.352998 -0.324801
-0.342553 0.230006 0.580088
-0.204843 0.798494 -0.253299
-0.246693 0.324687 0.639051
0.0995868 0.629079 -0.45599
-0.496332 0.247192 0.398317
-0.0583776 -0.106946 -0.611874
-0.158241 0.868807 0.316373
-0.287112 -0.800077 0.056426
-0.314852 0.724475 -0.253951
0.00344731 -0.0933574 -0.721203
0.275304 -0.334982 -0.461379
0.19669 0.643075 0.584457
-0.369558 0.759726 0.020524
0.206331 0.84647 0.361555
-0.473637 -0.177471 0.148095
-0.198979 -0.346267 0.364256
0.340795 -0.309022 0.182075
-0.35725 0.576882 0.471594
0.247596 -0.538784 0.402904
-0.250498 -0.925663 0.0280143
-0.280407 -0.643842 0.252084
-0.368927 0.309713 -0.366926
-0.139895 -0.428666 0.456188
0.157412 0.708634 0.55781
0.272127 -0.902397 -0.0484107
0.210702 0.0620107 -0.498616
-0.327503 -0.543806 0.0247481
0.176895 0.495036 0.650092
-0.255804 -0.0610716 0.523694
0.565481 0.0586243 0.12926
-0.517402 0.189503 0.310857
-0.382962 -0.191306 -0.289685
0.0668151 -0.694382 -0.211024
0.0691403 -0.0763523 0.59921
0.0411654 0.184873 0.701909
0.329823 -0.689911 0.118117
0.412631 0.738441 0.00728387
0.134011 -0.958808 -0.164641
-0.117758 -0.447647 -0.627599
-0.43419 0.0713601 -0.24287
-0.266077 0.566286 -0.416704
-0.167676 -0.360262 -0.554146
0.44659 -0.0280902 0.283879
-0.324891 0.592134 0.495432
-0.453052 0.564522 -0.1345
0.534691 0.550204 0.0224936
-0.454587 0.233723 -0.177737
-0.330251 -0.355904 0.0971539
0.277617 -0.441514 -0.178015
0.342033 -0.269863 0.179533
-0.361327 0.475754 -0.347242
0.468571 0.00894339 0.0253465
0.159565 -0.62999 -0.169984
0.351043 -0.483307 0.0351635
-0.316101 0.361783 -0.431163
-0.157902 0.789162 0.481597
0.461319 -0.0352415 -0.00926454
-0.365804 0.77981 0.173326
-0.273654 -0.466292 -0.434149
0.317903 -0.732577 0.0641752
-0.0841265 -0.691141 0.279785
0.405454 -0.151451 0.0954874
-0.167281 0.749637 -0.337317
-0.297403 0.560828 -0.39398
0.48612 0.365037 0.439009
0.447522 -0.00467191 0.322755
-0.345304 0.794648 0.199385
0.0776685 0.535406 0.649475
0.161411 -0.828828 -0.143647
0.0764271 0.479212 -0.509439
0.460744 -0.0170141 0.0638915
0.269849 -0.111762 0.491394
0.368096 -0.122072 -0.354114
0.195059 -0.367964 0.436033
0.332694 -0.395045 -0.230055
-0.136995 -0.411236 -0.600856
0.300035 -0.0233582 -0.454726
-0.248105 0.161755 -0.454785
0.2071 -0.542524 0.411816
-0.17209 0.15583 -0.484189
-0.33715 -0.0519228 -0.429765
0.394804 0.154144 0.520862
0.0482553 -0.385545 0.466957
-0.0825496 -0.882051 0.199517
0.0810071 -0.9123 -0.16484
-0.230523 -0.994704 0.0512712
-0.0849701 -0.668159 -0.212187
0.180028 -0.841972 0.216002
0.345024 0.78303 0.299958
-0.258826 0.84037 -0.0908272
-0.247812 -0.565675 0.358818
-0.450678 0.526779 -0.162348
0.441221 -0.0870919 -0.0446051
0.37923 0.212483 0.561745
-0.192012 -1.00026 0.133038
0.506288 -0.162822 0.120612
-0.059633 0.0151327 -0.662103
0.346842 -0.620229 0.198587
0.322162 0.28473 0.630658
0.0851236 0.913176 0.0287692
0.413091 -0.197439 -0.0901408
0.389463 0.629688 0.460325
0.278793 0.831505 -0.0838306
0.297904 -0.686512 -0.0695478
-0.290016 -0.154922 -0.463647
0.251927 0.434402 -0.469991
0.248617 0.657876 -0.391435
-0.542113 0.217885 0.174569
0.441436 0.123418 -0.224501
-0.47688 0.488918 -0.119421
0.238605 -0.971419 -0.123471
0.466853 0.296854 -0.196923
0.427406 0.393254 -0.265566
-0.070412 0.837078 -0.250049
-0.116386 -0.65825 -0.199874
-0.237132 0.128129 -0.466627
0.090999 0.913215 0.071359
-0.102788 0.0313135 -0.563399
-0.0540574 -1.03462 0.199352
-0.0860885 -1.01124 -0.210304
-0.38574 0.400224 0.532835
0.108329 -0.568011 -0.393245
-0.338671 -0.480296 0.213043
-0.340825 0.571636 -0.344005
-0.257338 0.40286 -0.454639
-0.17131 -0.27545 0.384506
0.177227 -0.341302 0.455264
0.118066 0.908562 0.092797
-0.327858 0.403839 0.575575
0.341314 0.150204 0.586029
-0.0153558 0.767453 -0.346312
0.107437 0.238715 -0.476612
0.194143 -0.111726 -0.530262
-0.14157 0.493236 0.635252
-0.123996 0.617212 0.599563
-0.291643 0.829247 0.141328
0.0504274 -0.620905 -0.229977
0.257808 -0.966369 -0.0498848
0.240554 0.134664 0.640953
0.00341982 0.27192 0.720248
-0.0643086 -0.586976 0.387007
-0.41845 -0.0473289 -0.279435
0.340768 0.620612 -0.333124
0.26784 -0.969008 -0.10098
-0.463762 0.0283125 -0.0603403
-0.00215322 -0.731982 -0.215564
-0.180572 -0.128511 -0.549519
0.482918 0.63229 -0.0429812
0.332212 -0.635631 -0.01841
-0.318422 -0.0273711 0.490124
0.555901 0.290955 0.26814
0.447596 0.157257 -0.199664
0.348519 -0.633224 0.015025
-0.557794 0.49425 0.119846
0.542806 0.577102 0.183794
0.360655 -0.551534 0.212552
0.483112 -0.151123 0.14401
0.157484 0.891669 0.253072
-0.412487 -0.244896 0.0372622
-0.438512 0.644468 -0.0797822
-0.0858025 -0.259597 -0.612708
0.228829 0.873027 0.153683
-0.0347188 0.895696 -0.124621
0.21989 -0.769197 0.218312
-0.55086 0.51462 0.243685
-0.298271 0.824837 0.177099
0.134667 0.764325 -0.339649
-0.0137741 -0.72274 0.255215
0.0183774 0.47387 0.668185
0.35046 0.352739 0.598693
-0.419294 -0.113157 -0.15865
-0.270239 0.83835 -0.0318098
-0.378425 -0.160761 0.183014
-0.11416 -0.497959 -0.625027
0.543935 0.545082 0.206184
-0.252495 0.202249 0.641353
-0.138176 -0.308974 -0.598119
-0.327055 0.537243 0.517009
-0.0581403 0.52593 0.645697
-0.230679 -0.119219 0.494329
-0.26794 -0.512771 -0.320273
0.320021 -0.486615 0.309093
-0.473244 0.111867 -0.0962648
0.00823344 0.855337 0.417435
-0.545185 0.541325 0.265918
0.430476 0.476511 -0.240921
0.411657 -0.00356058 0.391748
0.309155 0.156703 0.615072
0.130344 0.289468 -0.492003
0.350935 0.53326 -0.369446
0.221033 -0.331436 0.390348
-0.350479 0.037913 -0.409944
-0.209275 -0.910719 -0.170564
-0.33655 0.798854 0.0639714
-0.190973 0.877791 0.141735
0.526705 0.457645 0.355742
0.1586 0.131766 -0.492639
-0.288198 -0.76827 0.0877213
0.175874 -0.406186 -0.549434
-0.192986 -0.604011 -0.152496
-0.1157 0.14843 0.6824
0.234229 0.360338 0.66595
-0.0802729 -0.516008 -0.62816
0.0824599 -0.803711 0.230303
-0.0497769 -0.242942 -0.63241
-0.115765 -0.642046 0.316327
0.165379 -0.439611 0.460257
0.00183353 -0.166528 -0.64687
0.332255 -0.61283 0.242894
0.0337777 0.887233 -0.149523
0.114581 0.861977 -0.195015
0.0855505 -0.800098 -0.168158
-0.170943 0.885963 0.114556
-0.37709 0.357869 0.55309
-0.0315829 0.906651 0.235194
-0.159806 -0.560493 -0.309872
0.06119 0.200238 -0.575249
-0.0612473 -0.0468782 -0.699055
-0.307775 -0.161422 0.366689
0.429653 0.718285 0.0734389
0.562313 0.449179 0.198729
0.318101 -0.640531 0.221455
-0.382652 -0.641366 0.0771165
-0.120591 -0.825589 -0.170346
-0.199089 0.641123 -0.415029
0.28894 -0.363552 0.274212
-0.00854244 -0.368174 -0.615124
0.314187 0.0209595 -0.448785
-0.467057 0.0749154 -0.0862888
-0.448618 0.265375 -0.1961
0.126953 -0.450731 0.474135
-0.464109 0.524665 0.41864
-0.422127 0.491093 0.471427
-0.13715 0.896732 0.114626
-0.324835 -0.262811 0.167826
-0.118802 -0.172384 -0.634359
0.280128 -0.837169 -0.0070218
0.553588 0.491217 0.105226
-0.0430378 0.0340408 -0.692485
0.228689 -0.967791 0.00992999
-0.262096 -0.601751 0.321117
-0.545058 0.00844358 0.224247
0.255951 -0.479669 0.400333
0.565029 0.381985 0.0725992
0.224743 -0.906622 0.0588904
-0.232557 -0.444972 -0.509691
-0.355262 -0.327484 -0.284271
0.377771 0.072523 0.498225
0.401459 0.113981 -0.324463
0.470968 0.519833 0.432103
-0.485349 0.502037 0.402704
0.322257 -0.0970289 -0.426011
0.337188 0.640556 0.51115
-0.523003 -0.0954073 0.290573
0.434336 -0.120525 -0.0491673
0.553339 0.256627 0.278053
0.18861 -0.853771 -0.13637
0.0776229 0.337248 -0.54385
-0.510784 0.520951 -0.0352716
0.12746 -0.214933 0.490954
0.201652 -0.199647 -0.547431
-0.372373 0.317912 0.565169
0.0808444 -0.045951 0.61332
0.173544 0.460466 0.665035
-0.336599 -0.766598 -0.00633906
0.0157007 -0.309521 0.45735
-0.430751 -0.197713 0.0778685
-0.370126 0.597616 0.445836
0.402048 0.428052 0.541294
0.0664484 0.908767 0.228187
-0.392381 -0.025621 0.403597
-0.0187752 -0.992527 0.204992
-0.0299087 0.915769 0.149751
0.111933 0.456761 -0.517247
0.550971 0.230527 0.250358
0.231951 -0.516943 0.424465
0.203566 -0.125273 0.541502
0.224461 0.246389 0.670816
-0.306813 0.820586 0.110478
0.400508 -0.188961 -0.209926
0.311908 -0.614483 0.279618
-0.168891 -0.243841 0.398558
-0.114848 0.899706 0.183979
0.406729 -0.23358 -0.142672
-0.0308002 -0.986934 -0.198169
-0.100551 0.179068 -0.472681
0.449706 0.0380557 -0.214781
-0.0325116 0.846188 -0.241062
-0.312996 0.348229 0.599978
-0.529117 0.607628 0.166243
-0.340932 -0.184761 0.280767
-0.339705 -0.680097 -0.014796
0.422075 -0.128978 -0.127827
0.306342 0.292346 -0.459271
0.0751152 -0.874189 -0.162558
0.0239556 -0.752629 0.241017
-0.0381633 0.608264 -0.46339
0.244153 0.866138 -0.0106568
0.129673 0.455986 0.675114
0.0517538 -0.0156007 0.628348
0.059172 0.146077 -0.625664
0.198113 -0.213403 0.431367
-0.273245 -0.70869 0.187668
-0.402608 0.749505 0.194906
0.426072 0.665186 -0.138693
0.271181 0.129348 -0.453641
-0.417839 -0.233842 0.117088
-0.30628 -0.852088 -0.0941877
-0.418601 0.13945 0.47891
0.0583544 0.818326 0.475872
-0.217403 -1.04177 0.0777279
0.205862 -0.294793 0.406519
-0.0067745 0.321214 0.708084
0.465923 0.271652 0.46024
0.164973 0.842468 0.398942
-0.531454 0.280301 -0.0052151
-0.382629 0.714088 0.352294
-0.487071 0.663744 0.127253
0.524461 0.234106 0.345983
0.424197 0.715968 -0.0175173
-0.297125 0.819953 -0.0462291
-0.285339 -1.02914 -0.0919756
0.00356568 0.513802 0.654135
-0.330873 -0.482419 0.0646378
0.0735904 -0.120258 0.580026
-0.128181 -0.687214 -0.185605
0.251568 -0.787128 0.120644
0.526677 0.510592 0.330889
0.276843 -0.0445064 -0.471389
-0.33463 0.799332 0.246494
-0.341947 0.642331 -0.30035
0.258769 -0.410022 0.353608
-0.237946 0.238241 -0.481505
0.406197 0.739094 0.243422
0.0697749 -1.02014 -0.184055
-0.0922983 0.763862 -0.338381
-0.412565 0.60406 0.407073
-0.368578 0.161609 -0.321932
-0.183979 0.763234 0.490217
0.345347 -0.548742 0.00592318
0.471798 0.461416 -0.171237
0.335621 0.573614 0.550425
-0.00142831 -0.161091 0.556732
0.0366168 0.740993 -0.379624
0.0589319 0.175022 -0.606996
0.18317 0.339356 0.688084
0.249025 0.222099 0.656302
-0.246503 -0.352425 0.306112
-0.356506 0.717261 0.374529
-0.00418464 -0.194047 0.518649
0.508265 0.642325 0.0920369
0.357452 -0.567007 0.249966
-0.0425803 -0.642216 0.326487
-0.203373 0.871449 0.187857
-0.430539 -0.0842048 -0.0171547
0.380023 0.697544 -0.19238
-0.134502 0.898536 0.000113825
0.472996 -0.140546 0.0238179
0.291326 -0.201612 0.313025
-0.549381 0.332195 0.305969
0.500682 0.0896293 0.0361011
-0.168806 0.88233 -0.0978246
-0.295699 -0.487742 -0.285408
-0.521734 0.278713 -0.0384297
0.167185 -0.216201 0.459144
-0.48841 0.078283 0.0512229
-0.36123 -0.644241 0.0229372
-0.366571 -0.276263 -0.291194
0.125957 -0.940435 0.213222
0.479475 -0.111064 0.159547
0.314054 0.812698 0.282141
-0.41034 0.076517 0.440061
-0.280757 0.205154 -0.464366
0.394778 -0.0955685 -0.307821
0.331212 0.346338 -0.439274
0.127942 -0.288815 0.472703
-0.222024 -0.285698 0.325265
0.554438 0.484313 0.202215
0.0268734 -0.344815 0.458918
-0.222394 0.637972 0.553036
0.552511 0.233255 0.0312243
-0.211086 -0.743519 -0.136555
0.243948 -0.705122 0.258885
-0.252572 0.536462 -0.434722
0.117272 0.59344 -0.472828
-0.0773719 -0.58171 -0.311006
-0.142264 -0.489974 -0.602642
0.503482 0.374671 -0.129475
0.362842 0.49572 0.551339
-0.146387 0.560235 -0.468484
-0.0297629 0.178011 -0.636013
-0.503628 0.599684 0.0273072
-0.370714 -0.326559 -0.0577125
-0.41735 -0.0853994 -0.252133
0.313113 0.627431 -0.357738
0.12698 -0.406479 0.472969
-0.5179 0.487366 0.349747
-0.0858303 0.223589 -0.474169
0.0961453 -0.635576 0.336589
-0.1063 0.724912 -0.381362
-0.206819 -0.432842 -0.537865
-0.362675 0.502688 0.50653
-0.258716 0.763208 0.426998
0.469445 0.0305607 0.25182
-0.0119028 -0.574941 -0.330185
-0.0761746 -0.771834 -0.196355
-0.034387 0.572502 0.631816
0.248684 0.287371 -0.473093
0.279697 -0.160681 0.43367
0.140142 0.496648 0.659335
-0.243155 -0.9631 -0.169354
0.266605 -0.703108 0.223056
-0.482914 0.103703 0.233546
-0.18541 -0.0154016 -0.529408
-0.285288 -0.216958 0.308809
0.0275636 -0.642035 0.325952
0.267634 -0.67813 0.257606
0.544629 0.566345 0.139104
-0.348245 -0.567405 0.0456188
0.0950004 0.813885 -0.281971
0.150451 0.10031 -0.503838
-0.245707 -0.505101 -0.219956
-0.450138 0.631014 0.352085
-0.0891374 0.775933 0.520231
-0.0183453 0.436017 0.67873
-0.363676 -0.1593 0.27219
-0.489272 0.597135 -0.00523314
0.204385 -0.845461 0.158526
-0.231595 -1.03165 0.0462469
-0.201765 0.0543042 0.620249
-0.224911 -0.352676 0.334694
-0.431105 -0.00586366 -0.263213
-0.145857 -0.69242 0.274931
-0.0689608 0.197761 -0.500899
0.207594 -0.615302 0.337879
0.240719 0.631684 0.575713
0.552527 0.222438 0.107606
0.563747 -0.00938691 0.127375
0.344576 -0.385658 0.152943
0.438398 0.178447 -0.225757
-0.15504 0.231826 0.692851
-0.406922 0.367548 -0.281958
-0.207569 -0.201027 0.402134
0.0961241 0.912255 0.121034
-0.532564 0.573052 0.281424
-0.116263 0.0570168 -0.534187
-0.123677 0.662232 -0.424738
0.174979 -1.01803 0.136256
0.483229 0.0794586 -0.0474833
-0.522547 -0.0274364 0.153256
0.403126 0.232199 -0.301848
0.139455 0.487542 -0.502055
0.0100957 -1.07924 0.202543
-0.172122 -0.517737 -0.527266
-0.286659 -0.402578 0.277163
0.187232 0.683027 0.563954
0.230447 -0.520079 -0.367446
-0.404867 -0.00732744 -0.33019
0.504785 0.139881 -0.0163588
0.301775 0.226437 -0.428118
0.159559 -0.258656 -0.564479
0.214366 0.325082 0.676197
0.271511 0.388788 -0.481646
-0.160286 0.720532 0.535589
0.331942 -0.461439 0.236882
-0.214631 -0.130615 -0.543806
-0.22392 -0.059883 0.543018
0.558435 -0.0384784 0.107963
0.337081 0.307504 -0.432921
-0.56382 0.337231 0.23788
0.216959 0.665943 -0.402891
0.384875 0.312263 0.579338
0.359526 0.203462 -0.368652
-0.357837 -0.0190721 -0.407954
-0.489994 0.495174 -0.0877547
-0.174993 -0.918955 0.181941
0.220062 -0.641019 -0.123158
-0.33663 0.470783 0.538319
-0.311144 -0.136578 -0.443089
-0.203549 0.855809 -0.141559
0.291407 -0.493298 0.365829
0.500278 -0.0788095 0.184218
0.33925 -0.0634547 -0.41099
-0.155928 -1.06839 0.182093
-0.526749 0.391971 -0.0489854
0.17205 -0.573569 0.382167
0.38053 0.153206 -0.32714
0.244503 -1.03567 -0.0302175
-0.284993 -0.231363 -0.470802
-0.393781 0.396301 -0.298263
0.280886 -0.627294 0.309458
