-0.395968 -0.48995 0.17257
0.227005 0.0612998 -0.341678
0.302924 -0.469783 0.30652
-0.242177 -0.839374 -0.402889
0.300429 -0.576973 0.257787
-0.548237 -0.471764 -0.154286
-0.462017 -0.800864 -0.188894
-0.568839 -0.607354 -0.152845
-0.399092 -0.267615 -0.451729
-0.309351 -0.314644 0.0310541
-0.250209 0.0505823 -0.0767985
0.25466 -0.331372 -0.0671443
0.29521 0.617615 -0.339984
0.0713641 0.740596 -0.305885
-0.286729 -0.342272 -0.480771
0.383706 -0.389966 0.104601
-0.163203 -0.0517495 -0.0754372
0.293529 -0.942716 -0.150474
0.376113 0.736354 0.26803
-0.0207073 -0.754572 -0.423354
-0.114705 -0.0326686 -0.156125
-0.0228671 -0.885968 -0.354488
-0.203503 0.0165526 -0.195449
0.161697 -0.813609 -0.167031
0.494729 0.574522 -0.203279
-0.532631 0.332941 0.0337956
-0.157506 0.67277 0.403204
-0.0255519 -0.0350253 -0.212858
-0.0257177 -0.312595 0.306454
0.095638 0.269453 -0.460826
0.337194 0.874214 0.114043
0.0633373 -0.756672 -0.311864
0.428033 0.246306 0.462385
0.202481 0.0697248 0.544553
0.467276 0.734889 -0.190725
0.129523 -0.388627 -0.1617
-0.00704971 0.845715 -0.134822
-0.532262 0.73075 0.0337868
-0.221234 0.165264 0.378685
-0.526112 -0.404335 -0.432882
0.0988421 0.854273 -0.165131
0.307855 0.768138 0.336444
-0.161701 0.622701 -0.332599
-0.411907 -0.907387 -0.0491165
0.0563901 -0.546182 0.371609
0.306501 -0.603754 0.105802
-0.369549 -0.0420494 -0.257869
0.580061 0.431003 0.162376
-0.410801 0.698433 -0.168675
-0.0611294 -0.622167 -0.478567
0.211348 0.477414 0.520073
-0.0129006 -0.209719 0.241313
0.0978167 -0.462419 -0.231709
-0.342385 -0.553614 0.178966
-0.545005 0.353906 -0.0520076
0.237031 0.826322 0.291572
-0.276343 0.076686 0.306952
0.494373 0.323382 0.401158
-0.472944 0.242063 -0.0625782
-0.606352 0.507167 -0.0156582
0.60057 0.756315 -0.126478
0.53115 0.248715 -0.184501
0.0354878 0.597176 -0.416106
0.279255 -0.0300037 -0.270467
-0.479406 0.750042 -0.067208
0.00371419 0.6634 -0.372096
0.250493 -0.406077 0.384929
0.201951 -0.917785 0.12573
-0.199373 0.522167 -0.34118
0.0536041 0.0467836 -0.353201
0.0911875 -0.950543 0.205868
-0.123516 0.240087 0.471854
0.495128 0.394016 -0.246907
0.14203 0.509171 -0.450823
-0.272014 0.00699017 0.0994933
0.426845 0.240249 -0.311996
-0.508276 -0.0679961 -0.283249
-0.305921 0.479727 0.332359
-0.431802 -0.240464 -0.315519
-0.250567 -0.364006 0.112041
-0.0286156 -0.116538 0.293269
0.0253493 -0.240378 -0.00463162
-0.271341 0.0431358 0.193668
0.482489 0.329529 -0.297781
0.105195 -0.546707 -0.281536
-0.144162 -0.419865 0.196785
-0.19493 -0.593584 -0.51108
0.114803 0.593449 -0.392224
0.191164 0.182712 -0.436647
-0.260068 -0.716743 -0.497573
-0.282934 0.733672 0.0171991
-0.441678 -0.44877 -0.491393
0.208172 -0.647887 -0.114521
-0.366279 -0.341025 0.073472
-0.398053 0.185778 -0.137436
0.467344 0.149002 -0.228805
-0.0213622 -0.131268 -0.0789717
-0.0396157 0.860012 0.00443817
0.361489 -0.456487 0.0398752
-0.35988 -0.576166 -0.45603
-0.0696571 0.840286 0.112578
-0.360632 -0.804726 -0.36324
0.268455 -0.769217 -0.082118
-0.346559 0.572468 -0.253503
0.00399335 -0.302328 -0.193285
0.375939 -0.0292304 -0.157355
0.227667 -0.550597 0.340846
0.274949 0.218161 -0.429217
0.0312024 -0.368919 -0.238801
0.0935032 -0.915557 0.288892
-0.116967 -0.286052 -0.0142016
-0.0764927 -0.659029 -0.492867
-0.503906 -0.705216 0.0604657
-0.461973 0.574524 -0.22341
-0.214752 -0.940495 -0.361059
0.207968 -0.102878 0.365357
-0.333968 -0.902703 0.219189
0.0572912 0.779842 -0.24242
0.0834935 0.884551 0.0271477
0.534276 0.811211 -0.160165
-0.268215 0.305718 -0.342728
-0.102295 -0.965704 0.178612
0.312278 0.776248 -0.181819
-0.158885 -0.350125 0.108106
0.0722867 0.455158 -0.467038
-0.405863 0.471562 0.0972019
0.52783 0.0726332 0.114972
-0.341557 -0.452069 -0.508327
-0.163299 -0.257802 -0.284495
0.0315658 0.327489 0.64127
0.457277 0.0515536 -0.161544
0.340042 -0.838294 -0.11367
-0.373315 0.236324 0.146771
-0.0206964 -0.308065 -0.0659128
0.368707 0.165378 0.528588
0.50583 0.467 0.361995
-0.0163713 0.483768 -0.44404
-0.394871 0.471413 -0.273055
0.481535 0.054321 -0.0666575
-0.445175 0.243579 0.045262
0.0178193 0.0439422 0.550047
-0.109343 -0.500851 -0.515024
-0.24567 0.596786 -0.269868
0.127665 -0.816527 -0.271954
0.358453 0.155057 -0.357497
0.158502 -0.0148245 -0.292929
-0.0135643 -0.152538 0.0263057
-0.146085 -0.526001 0.23279
-0.484789 -0.824742 -0.0932216
-0.2595 0.39942 0.392785
-0.252154 -0.227205 -0.196563
-0.218349 -0.0189159 0.281223
-0.484567 0.176621 -0.293107
0.40666 0.841286 0.128307
-0.346119 0.592061 0.155383
-0.502624 0.515422 0.0217067
0.0091272 -0.0212233 0.51
-0.360461 0.450611 0.292926
-0.118469 -0.737447 -0.466061
0.00289866 -0.409513 0.341774
-0.47035 0.331863 -0.15412
0.150143 0.584113 0.526489
0.0750027 -0.939253 -0.288555
-0.0400413 0.751931 -0.240694
0.0642325 -0.445104 -0.322119
0.549475 0.504059 0.314242
0.186704 -0.292476 0.407172
0.432908 0.492264 -0.294554
0.278316 -0.683742 0.0355819
-0.243019 0.391642 -0.344064
0.320668 0.433253 -0.408991
0.677575 0.817401 0.0679413
0.381572 -0.0727733 0.109914
-0.0721044 -0.576868 0.293792
0.66286 0.895361 0.0439374
-0.552883 -0.309105 -0.435974
0.349992 -0.0461727 0.341434
0.142991 -0.0698668 -0.20541
0.396475 0.65915 0.386903
0.149193 0.84248 0.235939
-0.358928 0.106039 -0.0785266
0.633769 0.596729 0.00759902
0.337051 -0.120529 0.205993
-0.432829 -0.8399 -0.00259736
0.0774708 0.133602 0.610844
0.31128 -0.388901 -0.041803
-0.371757 -0.678792 -0.439022
-0.0309525 0.0328179 -0.317526
-0.0701381 0.832649 0.205536
-0.580448 -0.361973 -0.300853
-0.27882 -0.941308 -0.262477
0.0831363 0.87228 0.18009
-0.59624 0.730077 -0.0293182
-0.168661 0.179913 -0.339099
-0.0381719 -0.37413 -0.354055
-0.146413 0.578066 0.495862
-0.518089 -0.481408 0.0234735
-0.402722 0.228877 -0.354698
-0.557521 -0.191064 -0.405087
-0.415361 -0.315422 -0.00880572
-0.0941616 0.356716 -0.438444
0.218036 -0.186574 -0.0636875
-0.358424 0.229114 0.259862
0.539064 0.0858415 0.238403
0.267646 -0.0813346 -0.17183
0.477771 0.566861 0.345275
0.275706 -0.878918 0.0604961
-0.54313 -0.434417 -0.241567
-0.233732 -0.476772 -0.512767
0.202212 0.870598 -0.0278747
-0.517065 0.695174 -0.141359
0.31753 0.907247 0.0022893
0.668683 0.792338 -0.03045
0.167344 0.892801 0.0453859
0.129686 0.218219 0.6434
-0.152295 -0.716225 0.208624
-0.0144697 0.805506 0.315886
-0.472593 -0.38243 0.00630226
0.318958 0.332094 -0.401682
0.167209 0.75691 0.40023
-0.00980215 -0.505803 -0.451184
0.64198 0.683979 -0.0537725
0.108201 -0.375062 0.417476
0.539561 0.180704 0.32123
0.202666 -0.945652 -0.0896705
0.526025 0.596028 0.16166
0.553378 0.827679 0.0707699
-0.372937 -0.356395 -0.518648
-0.408725 -0.870735 -0.28556
0.140956 -0.71299 -0.167568
0.567582 0.505816 0.194677
-0.0743249 -0.291352 -0.208493
0.122693 -0.64714 -0.289355
0.097454 -0.0770291 0.456035
-0.302717 -0.735982 0.215267
0.0697701 -0.96251 -0.163709
0.332343 -0.325202 0.00808676
-0.15716 0.804503 0.0572016
-0.385681 0.10241 -0.309881
-0.20554 -0.96235 -0.197129
0.496106 0.896173 0.0984382
0.364086 -0.531949 0.204929
-0.0996561 0.704317 -0.303024
-0.052604 0.598532 0.464896
0.304894 -0.53883 -0.0188008
-0.329318 0.196135 -0.315143
-0.000443462 -0.655791 -0.46491
-0.225008 0.744752 -0.0457636
-0.388248 -0.851424 0.122932
-0.00464785 0.435574 0.543103
0.112005 -0.12367 0.375987
0.566764 0.324514 -0.138756
-0.381846 -0.235279 -0.179185
0.00896685 -0.958419 0.0978665
-0.0218632 -0.7942 0.33143
-0.5456 -0.53927 -0.0620078
0.577462 0.316518 -0.0495958
-0.214215 -0.9049 0.289064
-0.131785 -0.0306086 0.42796
-0.531097 -0.334305 -0.151021
-0.455403 -0.563151 -0.411306
0.140067 0.776311 -0.27082
0.576023 0.120148 -0.0188052
0.0246796 -0.206073 0.302325
-0.0121086 -0.93907 -0.0997737
-0.244398 -0.298693 -0.427251
0.309809 -0.109487 -0.0677646
-0.118871 -0.938698 0.296133
-0.0745266 0.740509 0.380135
-0.224834 -0.934164 0.185809
0.604283 0.335328 0.0474156
0.429921 0.599396 -0.262191
0.304049 0.825234 0.235803
0.131766 -0.693732 0.279091
-0.124981 -0.838873 -0.431217
-0.129282 -0.0897652 0.273698
-0.426142 -0.167772 -0.473506
0.509932 0.88842 -0.150126
0.557741 0.15862 0.0755415
-0.532831 -0.220238 -0.482461
0.249593 0.167555 0.607393
-0.359643 -0.669739 0.196681
0.101089 -0.302209 -0.0866277
0.410165 0.924326 -0.0792531
0.595637 0.21396 0.214172
-0.127061 0.23337 -0.411141
0.121477 0.728809 0.458579
0.370191 0.0665485 0.506287
0.457765 0.649753 0.282231
-0.138576 0.753472 -0.167088
0.304095 -0.00662468 0.466002
-0.469234 -0.771775 -0.271862
-0.396811 -0.132168 -0.305904
-0.189237 -0.0490598 0.0329496
-0.136212 -0.919846 0.0914287
-0.105729 0.517059 -0.406984
0.438553 -0.0253258 -0.0747058
0.194899 0.703576 -0.332935
-0.368108 -0.249246 -0.100308
0.618122 0.868379 -0.0923514
0.622571 0.583833 0.0959765
0.0692156 0.872446 -0.052633
-0.29163 0.661451 0.225128
-0.540018 0.520841 -0.169704
-0.324111 0.0948787 0.134933
0.0784587 -0.289366 0.384037
-0.347293 0.586847 0.057854
-0.286044 0.212611 0.312082
0.33645 0.36115 0.467283
-0.0979443 0.471269 0.498995
0.284682 -0.128878 0.301927
0.121776 -0.565694 -0.203773
0.560089 0.394003 -0.11085
0.0744824 0.635526 0.499753
-0.0463154 -0.133807 0.148821
-0.321211 0.0805094 0.0223031
0.218492 0.678048 0.483316
0.590711 0.903621 0.0717351
-0.534245 -0.577702 0.052784
0.315065 0.0690926 -0.303951
0.337331 0.260382 0.561964
-0.476107 0.000655741 -0.370537
-0.097698 0.192793 0.552379
-0.00895438 0.218301 0.63611
0.473431 0.689036 0.180663
-0.621026 0.611846 -0.0184641
0.341344 -0.187193 0.157354
0.00275706 0.351309 -0.468242
0.612587 0.496387 0.0633787
-0.373342 0.338325 0.210622
0.583407 0.998601 -0.0114174
-0.0284135 0.353375 0.545507
0.58553 0.57314 -0.0834837
0.273967 0.55382 0.476956
-0.539739 -0.662078 -0.0164621
-0.27461 -0.229353 -0.122085
-0.0512423 -0.278371 0.0448408
-0.408197 0.112356 -0.222846
-0.3093 0.0473487 -0.216211
0.423816 0.427855 0.425037
0.466289 -0.0108792 0.11518
-0.506462 -0.324692 -0.502362
-0.485329 -0.494808 -0.406901
-0.283682 0.504876 -0.302597
-0.213195 0.582208 0.38774
0.140658 -0.460251 0.404009
-0.061317 -0.666364 0.270515
0.263732 0.347159 0.515774
0.586374 0.243041 0.0287993
0.434293 0.14747 0.472683
-0.0266821 -0.0709813 0.412282
0.214973 -0.409878 -0.102163
0.21211 -0.676333 0.21774
-0.25161 0.127808 -0.29094
0.242461 -0.950355 0.0199644
-0.158874 0.0828895 0.472578
0.570311 1.03975 0.0698379
-0.355947 0.731378 -0.0477383
-0.153897 -0.94325 -0.273841
-0.519093 -0.6324 -0.290199
-0.0909588 -0.936264 -0.0324973
0.0828125 0.46291 0.547032
-0.373105 -0.0984337 -0.387613
0.069221 -0.932987 -0.00265339
0.389611 0.829931 -0.167252
0.436522 -0.0484105 0.0397125
-0.19925 0.671303 -0.229192
-0.148559 0.789933 0.198504
0.323347 -0.940798 -0.0508842
-0.132466 0.0598378 -0.28125
-0.196547 0.328322 -0.412346
-0.198373 0.487323 0.453926
-0.401113 0.15782 0.00157901
-0.225466 -0.278454 -0.0310205
0.550796 0.17108 -0.119108
0.570686 0.298638 0.317936
0.457205 0.106048 0.376113
-0.0313695 -0.949054 -0.261843
-0.422766 0.327543 0.0987929
-0.409156 -0.752504 0.121686
0.15319 -0.205591 0.362583
0.111128 0.116678 -0.398138
0.389323 0.968043 0.0624573
-0.505282 -0.167932 -0.306463
0.285334 0.709424 -0.291314
-0.128729 -0.261567 -0.121535
-0.53884 -0.427963 -0.0733842
-0.550164 0.441039 0.0596819
-0.326065 -0.944188 -0.170821
-0.171695 0.304513 0.40178
0.362866 0.568706 0.441417
0.215422 0.866882 0.171615
-0.142299 -0.41107 -0.475253
0.28246 0.13254 -0.394025
-0.132829 0.805193 -0.0396132
-0.0788032 -0.378799 0.258252
-0.0418924 -0.306299 0.188583
0.189375 -0.802339 0.169367
0.289937 -0.219221 -0.00644054
0.44808 0.99904 -0.00593345
-0.149939 -0.0491128 0.362102
-0.218326 -0.601481 0.197268
-0.534718 -0.456964 -0.332428
0.314402 -0.375177 0.318694
-0.490829 0.604146 0.0112497
-0.0539047 0.601799 -0.388873
-0.100845 -0.324509 -0.378506
-0.541326 -0.560797 -0.232513
0.232557 0.297259 0.593378
0.32209 -0.148699 0.0544653
-0.493574 0.43702 -0.216118
-0.313536 0.149839 0.23692
0.67692 0.717994 0.0517062
0.358423 -0.314488 0.1952
-0.21023 -0.0102408 0.1924
-0.0917838 -0.952108 -0.16737
0.43569 -0.00715549 0.277969
-0.535812 -0.0949308 -0.427966
-0.448128 -0.682786 -0.348871
0.260337 -0.23175 0.338904
0.379353 0.714572 -0.221323
-0.494581 -0.28115 -0.233265
0.144017 0.304899 0.628946
0.33737 -0.442434 0.247626
-0.0554464 -0.472271 0.344753
0.304948 0.698418 0.433858
-0.0778152 -0.82736 0.339234
0.037356 -0.681382 0.33069
0.528901 0.228027 0.405437
-0.327265 -0.249366 -0.29355
0.240707 0.528031 -0.401989
0.302801 0.103802 0.573855
-0.273592 0.711394 0.127105
-0.342897 0.513397 0.212551
0.259194 -0.681525 0.135587
0.142039 0.385479 0.570195
0.0487573 -0.00464249 -0.300563
-0.0343333 -0.902024 0.371183
0.0143895 0.141942 -0.393485
-0.116736 0.347024 0.470108
0.0668826 -0.684679 -0.38411
-0.553549 0.436872 -0.112854
0.385081 -0.00554204 0.415168
-0.330989 -0.885095 -0.348278
0.211811 -0.512494 -0.122244
0.0752856 -0.583188 -0.370884
-0.33939 0.363469 -0.285939
0.166337 -0.931312 -0.212826
0.119491 -0.616016 0.330366
-0.0450715 0.278684 -0.433657
-0.262616 -0.499652 0.171771
-0.418565 0.301059 -0.25928
0.58389 0.480381 -0.0217872
0.211668 0.830892 -0.166688
0.350847 0.538611 -0.349111
0.551201 0.428415 0.295502
0.134656 -0.969063 0.0847522
-0.190081 -0.800523 0.24823
-0.29733 0.586556 0.305981
0.406068 0.415225 -0.35994
-0.0154975 -0.94499 0.205722
-0.12961 0.413171 -0.407477
-0.29754 0.695371 -0.148446
0.305338 0.841507 -0.117934
-0.189933 -0.962798 -0.0203777
0.0659464 -0.107364 -0.116281
0.204775 0.429034 -0.437407
-0.341238 0.328975 0.301701
-0.513143 -0.715782 -0.113084
-0.333378 -0.934487 0.086241
0.39996 0.0954702 -0.249945
0.176619 0.347924 -0.477399
0.32541 -0.82393 -0.0122306
-0.131751 0.771133 0.27571
-0.290238 -0.837114 0.252736
0.294648 -0.765935 0.059574
0.0866109 -0.830236 0.296746
0.0596476 -0.143708 -0.0582075
0.591264 0.344432 0.203617
0.306279 0.465555 0.439823
-0.387284 0.693956 0.049792
-0.580025 0.645038 -0.106542
-0.339879 0.00499835 -0.365966
-0.0787542 0.0983673 -0.35309
-0.515006 -0.681825 -0.223455
-0.183955 0.738657 0.306627
-0.0775926 0.115251 0.573751
0.555595 0.711758 0.108277
0.167051 -0.0311596 0.533569
0.0251126 0.71493 0.440512
-0.214519 0.0591554 0.386944
-0.414443 -0.869811 -0.146037
-0.422201 -0.614916 0.152016
0.0853329 0.792552 0.318838
-0.226564 -0.950299 0.0619453
0.33804 -0.256057 0.252603
-0.316529 -0.952622 -0.0274242
-0.110538 -0.0754241 0.0848948
0.548196 0.674967 -0.148907
-0.460326 -0.443279 0.0898326
