-0.387265 0.30214 -0.706549
-0.00858155 -0.346443 -0.465018
-0.248817 0.588407 -0.463893
0.697163 0.369432 0.182026
0.689167 0.110057 -0.428263
-0.613479 -0.314588 0.657508
-0.692012 -0.0139026 0.222686
-0.83361 0.391363 0.0403738
0.598388 0.0950046 0.260113
0.834954 -0.0247346 0.368813
0.632212 0.0949657 0.124026
-0.113728 -0.329227 -0.453067
0.224111 -0.00274702 0.700298
0.951345 -0.680848 -0.0393668
-0.0309517 0.541844 -0.802451
-0.183499 -0.31758 -0.43637
0.0986247 0.422252 -0.459607
-0.837515 0.400959 -0.305779
0.610848 -0.48706 0.0445228
0.833638 -0.626557 -0.359481
0.888177 -0.419866 0.0985962
0.865089 -0.00271404 0.23458
-0.302245 -0.296265 -0.381215
0.624144 0.427895 -0.584538
-0.028417 0.242853 -0.781835
0.50935 -0.114849 0.81671
0.709025 -0.762934 0.174671
-0.794841 -0.0113938 0.0591267
0.218931 -0.239601 -0.680078
0.433241 0.270599 0.719201
-0.66902 -0.0741146 0.882256
-0.690587 -0.0787005 0.863843
-0.2221 -0.426925 -0.825176
-0.6322 0.697697 0.0501774
0.786518 -0.357785 -0.243111
0.151373 -0.172557 0.921953
-0.615506 -0.272456 0.252379
0.0783182 0.252099 -0.505097
0.159325 0.568575 -0.69326
0.290817 0.243362 0.811829
-0.777758 -0.408939 0.104543
0.079148 0.132453 0.777472
-0.973971 0.648221 -0.0238415
-0.791172 0.0120323 0.205554
-0.765412 0.384838 0.0522788
0.645791 -0.729194 -0.113159
0.762325 -0.775741 -0.0112412
-0.999078 -0.200338 0.198599
0.52442 0.291066 0.629792
-0.0684838 -0.0512203 0.738435
0.163935 -0.142134 1.03226
0.195883 0.226958 0.851074
-0.758984 0.671914 0.3232
-0.766093 -0.0390057 -0.111049
0.665824 -0.0806925 0.672184
-0.289166 -0.00309855 1.09427
-0.777464 0.687581 -0.355531
-0.938534 -0.266876 -0.204614
-0.799511 0.3881 0.0463263
-0.0631748 -0.337554 -0.460761
0.350396 -0.652243 -0.479732
0.65893 0.0623747 0.118818
-0.906021 0.560497 0.298307
0.205433 0.503545 -0.785455
0.455235 -0.43082 -0.266784
-0.521978 -0.11273 -0.495206
0.25729 0.0030841 0.686526
-0.325898 -0.539392 -0.527932
-0.756672 0.00632794 0.229645
0.802695 -0.363807 -0.209316
0.867733 -0.52776 0.302452
0.0431657 -0.599788 -0.585193
0.878557 0.36068 -0.258844
0.39254 0.0292362 0.600323
0.488145 -0.546177 -0.709475
0.098428 0.190743 -0.694887
-0.550272 -0.496168 -0.379314
0.67333 -0.543644 0.280195
-0.995726 -0.225585 0.0429789
-0.712155 -0.0832865 0.845429
-0.29771 -0.250282 0.90041
0.697199 0.373852 0.154493
-0.586196 -0.0983544 -0.432403
-0.0573157 0.185961 0.8854
0.858192 -0.00887276 0.272363
-0.413704 -0.394248 -0.762624
-0.593533 -0.0580637 0.946703
0.962971 -0.499114 0.00133482
-0.368316 0.610483 -0.397202
-0.797976 0.693893 -0.321978
0.0860673 -0.026042 0.737402
0.981284 -0.590628 -0.0164745
0.458732 0.160243 -0.63747
-0.976104 -0.173748 0.360902
0.681329 0.415791 -0.535793
0.0460886 -0.355342 -0.46282
-0.771475 -0.320911 -0.491598
-0.644829 0.713406 0.142709
0.747346 -0.34581 -0.306913
0.721231 -0.337827 -0.349447
-0.990434 0.555269 -0.0114644
0.283412 -0.395495 -0.398929
0.59831 -0.548462 0.0510797
-0.101314 -0.401927 -0.456847
-0.750114 0.679166 -0.40027
-0.872917 0.413454 -0.237075
-0.663184 -0.327259 0.268798
-0.12644 -0.515016 -0.500018
0.653321 -0.723034 0.0143658
-0.975356 -0.118764 0.284511
-0.523288 -0.501833 -0.402382
0.959121 0.0834337 0.122155
0.452755 -0.125445 0.851345
0.85129 0.0479496 -0.0798053
0.802034 0.197128 0.705905
0.615926 -0.491221 0.0713769
-0.189588 0.16463 0.868727
0.848907 0.0135113 0.110987
-0.490313 0.637884 -0.279349
0.00112249 -0.20447 -0.702466
-0.208713 -0.313149 -0.425944
0.965209 0.273657 0.266235
-0.938546 -0.152131 0.488801
-1.00018 -0.216405 0.0995631
-0.53986 0.101048 0.68964
0.584013 -0.564785 -0.645939
-0.984917 -0.158068 0.292391
0.705618 0.172252 0.825689
-0.113663 -0.574664 -0.584739
0.831359 0.387837 0.170826
0.942371 -0.67496 -0.0764217
-0.664314 -0.329025 0.582909
-0.376464 0.133014 0.804602
-0.882126 0.715414 0.271539
0.0807598 0.108355 0.763042
0.771001 0.00296943 0.109313
-0.619506 -0.0901677 -0.393378
-0.531769 0.328464 -0.63036
-0.848272 0.713399 -0.211147
-0.15392 -0.571227 -0.616002
-0.642502 0.651713 -0.532866
0.0128125 0.197189 0.883615
0.600214 0.223026 0.144476
0.118567 -0.11074 0.778087
-0.996853 -0.195748 0.226897
-0.620504 0.670336 0.0286788
-0.889682 0.735679 -0.0739015
0.0672428 0.227456 -0.774204
0.486066 0.182278 -0.249735
0.867264 0.00167247 0.207239
0.158188 0.22077 0.860099
0.576112 -0.304153 -0.501259
-0.194683 -0.431481 -0.831744
-0.940951 0.448834 0.0138227
0.738947 0.0957739 -0.354521
0.148404 0.358405 -0.839104
-0.437805 0.121533 0.766984
0.68974 0.389279 0.0583992
-0.745941 -0.0916982 0.805882
0.0870293 -0.187289 0.965594
-0.619949 0.398919 -0.108022
0.896135 -0.434585 0.167247
-0.71936 0.670732 -0.44268
-0.795248 0.38797 -0.374589
0.965779 0.307974 0.0541575
-0.775561 -0.38289 0.267363
0.714322 -0.760947 -0.001298
-0.933293 0.534461 0.269193
-0.0778748 -0.191817 -0.696204
-0.522969 -0.143312 0.436913
-0.541869 0.652425 -0.205611
0.454959 0.275159 0.700682
0.266252 -0.506804 -0.808056
0.238816 0.508002 -0.48409
-0.262197 -0.244149 0.915133
-0.386367 0.339465 -0.388236
0.141215 -0.486031 -0.838156
-0.0679072 0.284519 -0.498055
-0.0677286 0.249182 -0.778782
-0.0948084 -0.360637 -0.457918
0.899359 -0.422924 0.0239708
-0.0496397 -0.209167 0.964083
-0.0842657 0.560648 -0.51423
0.0803077 0.286472 -0.482558
0.320311 0.0147599 0.652234
0.935037 0.334555 -0.107333
0.619989 -0.687277 0.0253077
0.690206 -0.587671 -0.552239
0.322124 -0.14867 0.914354
0.962358 -0.69564 0.0793391
-0.260278 0.57937 -0.762987
-0.684121 0.741541 0.00729938
0.57007 -0.701877 -0.264906
-0.280631 0.593944 -0.450767
-0.120144 0.25762 -0.774712
0.639655 -0.0871252 0.70278
0.682676 -0.4163 0.0594191
-0.135761 -0.538209 -0.535152
-0.141976 -0.553671 -0.558574
-0.0383762 -0.198143 -0.699335
0.732892 0.179039 0.793712
0.870597 0.0258468 0.0565674
0.963053 0.269175 0.293932
-0.747196 0.528047 0.308209
-0.942492 0.450298 -0.0253852
-0.73263 -0.0547024 -0.203328
0.585286 -0.099165 0.754671
-0.18483 -0.0705579 0.7144
0.867389 0.032463 0.0153346
0.707195 0.409727 -0.50858
0.700715 -0.0721156 0.631388
0.0027943 -0.0396076 0.744005
0.530016 0.446752 -0.653575
-0.172743 -0.52767 -0.779215
-0.421077 -0.272683 0.834172
-0.173976 0.575479 -0.492822
-0.0446095 -0.585727 -0.590224
0.650443 0.412628 -0.0816696
0.171877 0.0722776 1.11724
-0.96116 -0.27658 0.307821
-0.394267 0.615972 -0.375098
-0.493837 -0.0391595 1.00776
0.0478057 0.202791 0.880881
0.619292 -0.718114 -0.176635
0.0812989 -0.605896 -0.582221
0.844845 0.0523847 -0.106759
0.978866 0.26797 0.151672
0.53886 -0.453911 -0.151859
0.508899 0.175714 -0.216283
0.871614 0.0104455 0.152556
-0.168045 -0.177117 -0.678756
-0.599435 -0.165208 0.232494
-0.687051 0.44176 0.157548
-0.293511 -0.54499 -0.54137
-0.596719 0.0881756 0.632724
-0.903081 -0.335421 0.308144
0.515764 0.0596658 0.460296
-0.468476 0.115793 0.748175
0.0861564 0.350321 -0.454302
-0.666687 -0.0772474 -0.327864
-0.736613 0.0459742 0.410187
0.923904 -0.68988 0.254612
-0.18874 0.56754 -0.780242
0.708266 -0.592163 -0.531059
0.16769 -0.0124596 0.719666
0.78744 0.192613 0.729758
0.434308 0.0381534 0.564589
-0.118697 -0.0595102 0.730242
-0.795511 0.00321048 0.150413
-0.63355 -0.352372 -0.628004
0.595552 0.433947 -0.60891
0.237755 0.233894 -0.444975
0.0953638 0.210457 0.875139
-0.318059 -0.410979 -0.802188
0.636592 0.418442 -0.115219
0.113477 0.486638 -0.48764
0.816001 0.0679434 -0.199282
0.105561 0.203178 -0.727245
0.478884 -0.436726 -0.239035
0.951352 -0.69871 0.183341
-0.384121 -0.279957 -0.323617
-0.7114 0.366392 -0.47903
0.16219 -0.0609334 1.10422
0.0187407 -0.350891 -0.464995
0.502533 -0.442633 -0.211287
-0.337599 0.330251 -0.418214
0.433196 0.472223 -0.377276
-0.574084 0.663327 -0.146543
-0.861226 0.688015 0.312582
-0.901454 0.425456 -0.168479
0.865292 0.378543 0.169345
-0.447045 -0.517333 -0.462184
-0.512155 -0.247942 -0.175496
0.482932 0.155691 -0.622606
-0.60076 0.574138 0.0472626
-0.881494 -0.129559 0.615885
0.835177 0.0590375 -0.147189
-0.647101 0.709319 0.0182596
-0.136581 0.295672 -0.490552
-0.227245 -0.556151 -0.562964
-0.993497 -0.230174 0.0146868
-0.724342 -0.00378732 0.226165
-0.0490974 0.0363369 1.13306
0.622742 0.424256 -0.148769
-0.683068 0.421585 0.0592205
-0.681486 -0.0727273 -0.303701
0.111079 0.183615 1.03151
0.672269 -0.745753 -0.0175347
-0.960917 -0.163227 0.42416
-0.622749 -0.0852235 0.223256
0.949878 0.324341 -0.0457527
-0.739281 -0.356626 0.427481
-0.693741 0.664392 -0.472742
-0.722169 -0.446552 -0.123185
-0.453655 -0.278778 0.814198
-0.697246 0.455351 0.2024
0.413424 0.0336948 0.582456
-0.650007 0.455806 0.0588097
-0.828158 0.624627 0.335002
-0.400637 -0.0223644 1.05293
-0.604278 0.676075 -0.0741134
-0.606524 0.393336 -0.140411
0.129006 0.516038 -0.797757
-0.587024 0.668791 -0.115502
-0.364656 -0.0160682 1.06782
-0.11418 -0.208911 -0.735327
0.191062 0.207221 -0.752061
-0.955617 0.500119 0.18987
0.152394 0.5706 -0.647476
-0.532015 0.628356 -0.627434
-0.867709 0.394625 0.0344213
-0.606953 -0.232206 0.244517
0.739864 0.401632 -0.470403
-0.702591 -0.337696 -0.569081
0.476677 0.279719 0.682164
0.262066 -0.636196 -0.526823
0.398231 0.171623 -0.674629
0.854991 -0.399975 0.0348084
0.13416 -0.150875 0.8355
-0.49216 -0.286858 0.781298
0.892952 -0.428697 0.139787
0.865497 -0.636997 -0.303249
0.958347 -0.689225 0.0261619
-0.151199 0.17093 0.877962
0.766932 -0.351797 -0.275012
0.121513 0.253711 -0.483469
0.933396 -0.669071 -0.113476
-0.148614 -0.323404 -0.444718
-0.909562 0.425602 0.0226506
0.231483 0.233109 0.836357
0.695068 0.37826 0.127037
-0.546201 -0.151569 0.391914
0.550555 0.162319 -0.14482
0.526656 0.147021 -0.591034
-0.600849 -0.198356 0.112499
0.993956 0.197126 0.14034
0.652027 -0.579233 -0.587761
0.575023 0.081238 0.34158
-0.0878462 0.0300537 1.13002
0.653326 -0.447549 0.0589058
-0.905316 0.747156 0.0112027
0.520903 -0.552383 -0.689369
-0.577158 -0.305667 0.700046
-0.718135 -0.347814 0.47853
0.411523 0.266039 0.73772
0.148626 0.0405524 1.12235
0.538536 -0.296258 -0.533302
-0.449571 -0.387974 -0.747787
-0.607206 -0.138547 0.229415
0.159254 -0.374001 -0.444378
0.667979 -0.324727 -0.411696
-0.752452 -0.371201 0.290058
-0.0940654 -0.19165 -0.625882
0.382439 -0.658248 -0.460136
0.553391 -0.458422 -0.128089
0.758862 0.0896617 -0.321954
0.200986 0.514357 -0.495356
0.0867216 0.209228 0.903791
-0.0409653 -0.456506 -0.848184
0.0849941 0.533362 -0.517041
0.0775362 0.156552 0.791903
-0.105651 -0.429453 -0.456133
-0.564113 0.380265 -0.209832
-0.422891 -0.132615 -0.570188
-0.352482 -0.145798 -0.613374
-0.288386 0.148227 0.841125
0.813713 -0.620396 -0.392054
-0.713866 0.69484 0.279314
-0.0677668 0.547782 -0.799515
0.785619 -0.676684 0.323364
-0.703684 -0.0659471 -0.267455
0.849478 -0.014821 0.308532
0.229057 0.200952 -0.742897
0.969522 0.282621 0.210842
0.800048 0.0746318 -0.237898
-0.955977 0.67961 -0.0260062
0.381068 0.26009 0.758968
0.445768 0.192291 -0.296793
-0.424014 0.308526 -0.691373
0.873035 0.219697 0.585672
0.893058 -0.450371 0.198819
0.886674 -0.645901 -0.252043
0.589381 -0.707779 -0.233466
0.386119 -0.527542 -0.762668
0.632477 -0.315994 -0.453195
0.864827 -0.661804 0.318162
-0.791897 -0.0173847 0.0216783
0.361214 0.0225484 0.627124
-0.788953 -0.0233756 -0.0157702
-0.908961 -0.0243979 0.258719
-0.975801 0.51826 -0.00308527
0.194336 -0.379855 -0.435922
-0.887186 0.419455 -0.202777
-0.605673 0.643927 -0.564389
-0.521039 -0.292917 0.756624
0.959761 -0.699755 0.144869
-0.914845 0.756865 0.101262
0.680371 -0.752011 0.0198645
-0.407135 0.127274 0.785793
0.600817 -0.480593 0.00342728
-0.561214 -0.104494 -0.461671
-0.910935 0.752077 0.160675
-0.589224 -0.174136 0.260373
0.163238 0.542294 -0.744787
0.889129 0.356236 -0.233386
-0.670009 0.71052 0.208873
0.638505 -0.514543 0.197336
-0.559807 -0.157349 0.359067
0.103114 -0.045763 0.746865
-0.0872349 -0.21391 -0.559965
-0.895106 -0.285217 -0.309396
0.671272 0.346129 0.164141
0.785231 -0.0462371 0.49365
0.676742 0.0406474 0.115346
0.816627 0.201643 0.682052
-0.147173 -0.315845 -0.834366
0.861391 0.367154 -0.295039
0.915561 0.345127 -0.16974
-0.369079 -0.531929 -0.510016
-0.139511 0.0216762 1.12598
0.826815 -0.373875 -0.151412
0.149778 0.522817 -0.507722
0.687435 0.167727 0.847007
-0.612059 0.505187 0.056679
0.613162 -0.570977 -0.621005
-0.840476 0.659495 0.324424
0.600864 0.136487 0.00620785
0.897263 -0.650353 -0.22644
-0.905954 -0.138358 0.567478
0.548362 -0.106916 0.786163
0.899226 0.36925 0.167864
0.140403 0.215578 -0.76428
0.612979 -0.0933515 0.731051
-0.56299 0.334344 -0.611274
-0.116854 0.555701 -0.7956
0.250009 -0.38963 -0.412801
0.883696 0.224201 0.559882
0.423594 0.466469 -0.713666
-0.713947 0.407805 0.0566174
0.3787 0.107382 1.05294
0.483541 0.455522 -0.681991
-0.721005 -0.360198 0.283293
0.161477 0.455819 -0.822037
0.886903 -0.481941 0.261962
0.9688 0.301828 0.092142
-0.932515 0.706775 -0.026601
0.254361 -0.24542 -0.671597
0.650228 -0.320361 -0.432445
-0.388499 -0.266587 0.854147
-0.425933 -0.116879 0.566797
0.88998 -0.466156 0.23039
0.797425 0.397131 0.172307
0.165393 -0.120877 1.06317
0.547278 0.0694595 0.408757
-0.962283 0.48351 0.140851
0.733296 -0.745992 0.251892
-0.30743 -0.092627 0.656781
-0.779156 -0.0300742 -0.0566037
0.910347 0.235463 0.495408
0.68573 -0.329094 -0.390946
-0.612383 0.681786 -0.0414957
-0.436618 -0.0286606 1.03804
-0.773511 -0.417592 0.0504652
-1.00353 -0.20952 0.142001
-0.0897003 -0.322425 -0.464674
-0.449045 -0.122662 0.539748
0.967366 0.278139 0.238539
-0.560301 -0.0517623 0.967056
-0.937378 -0.0519294 0.267675
-0.681698 0.435916 0.121001
0.0790179 0.234432 -0.527572
0.607683 0.152252 0.133175
0.553661 -0.558589 -0.669263
-0.487315 -0.255663 -0.215997
-0.717124 0.48444 0.263859
-0.0358782 -0.341999 -0.46289
-0.10167 0.289978 -0.495351
-0.261125 -0.550588 -0.554807
-0.152971 0.561624 -0.78887
-0.615101 -0.0626497 0.92829
-0.74061 -0.438859 -0.0786297
-0.049612 0.555061 -0.516909
0.486235 0.126894 0.998804
-0.165381 -0.575414 -0.684011
-0.226684 -0.238015 0.929856
0.592234 0.142438 -0.0295471
0.905345 -0.728629 -0.0265034
0.802042 -0.650467 0.331105
0.691659 0.358351 0.251055
-0.582289 0.385867 -0.18008
0.614399 0.116693 0.127498
-0.728708 -0.35222 0.453005
0.383091 -0.138135 0.889139
0.712089 0.0265182 0.113084
-0.973044 -0.247381 -0.089463
-0.140334 0.569917 -0.50085
0.87595 -0.756119 -0.0261962
0.793789 -0.614236 -0.424627
-0.602051 -0.192025 0.151328
0.38007 -0.266848 -0.625793
-0.910761 0.752704 0.0626651
0.469343 0.464591 -0.346326
-0.335434 0.604281 -0.417289
0.869439 0.00605898 0.179898
-0.258908 0.316247 -0.454816
0.652737 0.421843 -0.560165
-0.839167 0.764327 -0.0208987
0.986411 0.232548 0.146006
0.303117 -0.513031 -0.797115
-0.509823 0.366076 -0.279181
0.611571 0.110774 0.163937
0.135719 0.102747 1.10445
0.60773 0.130258 0.0439664
0.369759 0.484583 -0.420631
-0.930238 -0.31177 0.308619
0.0797177 0.216766 -0.550047
-0.668121 0.658052 -0.502804
0.145463 0.572626 -0.601691
-0.779727 -0.10011 0.766335
-0.657419 0.711963 0.175791
0.81715 -0.392218 0.0421028
0.589918 0.0891004 0.295557
0.592048 -0.597486 0.044116
-0.547383 -0.235812 -0.109938
-0.915723 0.431456 -0.134181
-0.206618 0.0106254 1.11406
0.857735 0.0435144 -0.0528518
0.110841 -0.0782516 0.762476
0.385958 0.473023 -0.729211
0.268661 0.228498 -0.432221
-0.169713 -0.228665 0.943555
-0.834539 0.707662 -0.24432
0.496453 0.458867 -0.323114
-0.573355 -0.22479 -0.0472928
0.0984896 0.211729 0.98072
0.849588 -0.568318 0.332418
0.0831774 0.0722068 0.741396
-0.246533 -0.306503 -0.410306
0.0808254 0.188953 0.845806
0.657142 -0.735508 -0.0767699
-0.772625 -0.03454 -0.0838261
-0.13553 -0.223055 0.951774
-0.0889944 -0.193675 -0.591765
-0.223399 0.310056 -0.469582
0.51456 -0.687068 -0.338644
0.039743 -0.194859 0.969294
0.927204 0.340125 0.163209
-0.963932 -0.253689 -0.127392
0.59413 -0.476283 -0.0239697
-0.382657 -0.140148 -0.594866
0.171692 -0.231842 -0.691387
-0.332743 -0.290458 -0.36255
0.768759 -0.701567 0.30873
0.123022 0.24797 -0.791743
0.540093 0.448079 -0.271889
0.955183 0.311001 0.158553
0.553253 0.442366 -0.639366
0.942943 -0.697666 0.221812
0.227143 -0.630158 -0.541253
0.881811 -0.40809 0.0436756
0.585444 -0.471884 -0.0505854
-0.686796 0.708595 0.252982
0.53106 0.168871 -0.180221
-0.14515 -0.0639293 0.723905
-0.729612 0.502614 0.290312
0.362178 0.178058 -0.692011
0.693861 0.362783 0.223444
0.751028 -0.723779 0.280311
-0.211071 0.272416 -0.76144
0.971571 0.117395 0.127587
0.455387 -0.539971 -0.729581
0.791682 -0.620296 0.336203
0.635192 -0.724762 -0.138549
0.421691 -0.533761 -0.747906
-0.840791 -0.302019 -0.397975
0.32228 0.249082 0.794934
-0.597407 -0.182392 0.210403
0.583603 0.148389 -0.065302
-0.858648 0.407454 -0.271373
0.899549 -0.678724 0.284577
0.633759 -0.468382 0.0585635
0.698575 -0.560733 0.298823
0.721265 -0.756575 0.219837
0.764366 0.395561 -0.44177
-0.961169 0.481251 0.00529389
-0.35592 -0.260492 0.874122
0.116314 0.0631568 1.12607
0.580775 0.145058 0.938218
0.496855 0.0537896 0.491219
0.779308 -0.384461 0.0493972
0.788868 0.38949 -0.413137
-0.578051 0.638088 -0.58803
0.318352 -0.646237 -0.499328
-0.121659 -0.224895 -0.766235
0.926133 0.340683 -0.144281
-0.49808 0.621959 -0.648279
-0.759562 -0.0434715 -0.138271
-0.754651 -0.430488 -0.0281722
-0.689559 -0.349194 0.276527
0.696784 -0.769292 0.129505
-0.777453 0.024334 0.281234
-0.867569 -0.00104652 0.248388
-0.193364 -0.561715 -0.571121
-0.350516 0.295754 -0.721725
-0.272704 -0.0860101 0.678043
0.19222 -0.62412 -0.555683
0.921007 0.239967 0.469619
-0.509735 -0.376746 -0.713326
-0.582855 -0.21818 -0.00775312
-0.234134 0.00605075 1.10746
-0.153919 -0.351476 -0.840524
0.604295 -0.310074 -0.477227
0.860408 0.215187 0.610493
-0.748789 -0.0479638 -0.164294
0.534163 0.135978 0.969396
0.343251 0.214385 -0.38665
-0.672223 -0.03428 0.222849
-0.363424 -0.284377 -0.341277
0.0848358 0.193551 -0.606119
0.680748 0.347975 0.314784
-0.527069 -0.0454609 0.987409
-0.947864 0.514036 0.225892
-0.530784 -0.242151 -0.145121
-0.813514 -0.108522 0.726788
0.462271 0.122351 1.01351
-0.1067 -0.192927 -0.704419
-0.722503 0.0518566 0.444261
-0.420218 0.621462 -0.352995
-0.953588 0.461965 0.0368741
-0.306255 0.324502 -0.435128
0.0804175 0.1991 -0.572521
-0.637613 0.70443 0.0898339
0.505978 0.286533 0.651348
0.0384726 -0.46938 -0.846304
0.611387 0.257556 0.14999
0.622808 0.126444 -0.506115
0.664293 0.406814 -0.04812
-0.524179 0.64698 -0.234391
0.826637 0.0634846 -0.173538
0.677016 0.398046 0.00513961
0.91844 -0.659257 -0.175234
-0.14819 -0.569133 -0.581997
0.873788 0.014832 0.125215
0.16449 -0.619564 -0.562318
0.346215 -0.260995 -0.639789
-0.44617 0.626951 -0.330892
0.460304 0.459907 -0.696199
0.0895143 0.0309307 0.739279
0.335776 0.481762 -0.749937
0.0937389 0.00341334 0.737869
-0.55956 0.65787 -0.176831
-0.59624 0.601718 0.043496
-0.71647 -0.0614409 -0.242362
0.690629 -0.762812 0.0883898
0.606858 0.100909 0.224668
0.164873 0.522963 -0.774847
0.971821 0.295682 0.130127
-0.799479 0.644622 0.33191
0.789412 0.0790907 -0.263642
0.585227 0.134668 -0.540909
0.155518 0.398912 -0.842593
-0.613368 -0.480982 -0.308225
0.931039 0.0612975 0.118618
-0.620487 0.687497 -0.00887798
0.666103 0.163193 0.865249
0.112695 0.215612 -0.759603
-0.862004 0.719136 -0.177974
-0.797681 -0.00120043 0.122843
0.510199 0.131436 0.9841
0.0503789 -0.0318558 0.740232
-0.101347 -0.217444 0.959993
0.841287 -0.379916 -0.11667
-0.949391 -0.26229 -0.178418
0.874018 -0.400925 0.00539378
-0.582453 -0.48858 -0.344454
0.988171 0.162677 0.13483
-0.0128984 -0.461055 -0.850378
-0.468241 0.632417 -0.305121
-0.66158 -0.467637 -0.240184
-0.543561 0.37444 -0.239569
0.86418 0.0390792 -0.0258982
0.00503254 -0.59368 -0.588166
0.861615 -0.392482 -0.0437096
0.621128 -0.497238 0.110844
-0.60528 0.546557 0.0510292
0.607839 -0.512914 0.0553647
-0.601251 -0.205372 0.239275
-0.680349 -0.461903 -0.209531
-0.0103485 0.0426201 1.13609
-0.129743 -0.183407 -0.687972
0.289635 0.00891862 0.671067
0.683378 0.393663 0.0317694
0.38231 0.206341 -0.355943
0.140397 -0.166929 0.858466
-0.776504 0.570435 0.338039
-0.249582 0.278773 -0.752238
-0.425514 -0.271117 -0.288299
-0.684732 0.064438 0.51328
-0.452834 0.613429 -0.676072
-0.172559 0.266058 -0.770642
-0.885567 0.580024 0.320143
-0.249517 -0.422369 -0.818608
-0.916818 -0.142949 0.541253
0.306956 -0.399974 -0.38447
-1.0013 -0.204929 0.1703
0.297529 0.488308 -0.763444
0.100784 -0.364244 -0.45847
-0.321433 0.589908 -0.739658
0.0907268 0.186153 -0.650917
-0.673002 -0.343986 -0.594333
0.684475 -0.756331 0.0472746
0.0304542 0.531938 -0.80541
0.808201 -0.771666 -0.0178834
-0.404817 -0.275537 -0.305958
0.714887 -0.405687 0.0560785
-0.699118 -0.456169 -0.178879
0.872737 0.021436 0.084056
-0.878132 0.728364 -0.120409
-0.696989 -0.339002 0.529579
-0.153233 -0.438311 -0.839409
0.609953 0.125737 0.0718102
0.655918 -0.529093 0.238766
0.952255 0.260194 0.348401
-0.268063 -0.160384 -0.648389
0.22671 0.0813917 1.10405
-0.63164 -0.319048 0.636239
0.939296 0.251207 0.402562
-0.15965 -0.573321 -0.650007
-0.633374 0.404501 -0.0756333
-0.13251 -0.258492 -0.800419
-0.48452 0.359803 -0.308889
0.0555553 0.264556 -0.495593
-0.729317 -0.331403 -0.54093
0.121499 0.516944 -0.507339
-0.170005 -0.481853 -0.808764
-0.549917 -0.298977 0.731949
0.199294 0.0768346 1.11065
-0.906981 0.747445 0.195586
-0.353731 -0.10145 0.628432
0.266364 0.194694 -0.731812
-0.706005 0.0579431 0.478552
0.0458149 0.539677 -0.520177
0.555942 0.140845 -0.565971
-0.841755 -0.365561 0.303303
0.532659 -0.691521 -0.317495
-0.983758 -0.207348 0.300188
0.670655 0.40243 -0.0214902
0.663329 0.33609 0.387018
-0.624235 0.34704 -0.561586
-0.595319 -0.310128 0.678777
-0.453066 -0.126966 -0.551679
0.0923906 0.386287 -0.456955
0.93474 -0.701138 -0.0268105
0.34227 -0.406692 -0.362782
-0.57044 0.094632 0.663507
0.740649 -0.589215 0.32987
0.13362 0.285587 -0.820216
0.566278 0.441607 -0.241155
0.958735 0.264688 0.32132
0.487411 -0.680389 -0.370367
-0.113447 -0.461539 -0.47259
-0.54589 -0.369894 -0.69119
-0.854302 -0.121144 0.660246
0.626331 -0.503256 0.150311
0.457763 0.0440169 0.537075
0.134818 0.549836 -0.557798
0.295251 0.0927843 1.08756
0.634105 0.156393 0.892613
0.741525 -0.0601689 0.568913
-0.478316 -0.511274 -0.440828
0.156957 -0.013784 1.11939
0.806039 -0.0375617 0.443525
0.506778 0.451137 -0.667783
0.338689 -0.51925 -0.782352
0.845815 0.210672 0.634346
0.7203 0.377311 0.169129
-0.290642 -0.415535 -0.808756
0.121206 -0.0202226 0.730861
-0.631757 0.079567 0.591681
-0.224509 0.573455 -0.771615
0.127923 -0.134821 0.812535
-0.608372 0.636027 0.0360874
0.634659 0.324138 0.456046
-0.747773 -0.361019 0.401369
-0.764081 -0.42404 0.0111465
-0.656368 0.0730978 0.559584
0.105455 0.456332 -0.467942
-0.313767 0.289368 -0.736901
-0.595523 -0.209367 0.0449665
-0.73756 0.37286 -0.448466
0.0804259 -0.217173 -0.700418
-0.981026 0.608384 -0.018537
-0.0970992 -0.447408 -0.843797
0.0881667 0.0585931 1.12829
-0.170289 -0.543585 -0.747481
0.620324 0.318162 0.49056
0.260027 -0.159179 0.935595
0.351674 0.254586 0.776951
-0.924646 0.437737 -0.0979155
0.446396 -0.671445 -0.40819
-0.501726 -0.136705 0.471565
0.324395 0.493127 -0.448511
0.648994 0.330114 0.421532
0.494577 -0.28781 -0.562458
0.244903 0.497015 -0.776022
0.133397 -0.225659 -0.696282
0.326248 0.184296 -0.706936
-0.75739 -0.367588 0.361319
0.275493 0.501627 -0.468842
0.561151 0.0753488 0.375168
-0.875925 -0.359073 0.30767
0.962757 0.314121 0.016173
-0.685241 0.359923 -0.509594
0.178726 -0.492263 -0.829126
0.600967 0.18781 0.138853
-0.26165 0.0014761 1.10087
0.692937 0.382667 0.0995822
0.899702 0.351793 -0.207927
0.558127 0.14052 0.954692
-0.407589 0.6049 -0.703865
0.221751 -0.165462 0.944764
-0.997956 -0.220995 0.071271
0.622559 0.292085 0.155504
-0.992403 -0.186566 0.283495
-0.707185 0.469896 0.233129
-0.603961 -0.358661 -0.653257
0.947207 -0.467371 0.0090341
-0.972459 -0.241964 0.304005
-0.573413 -0.163128 0.326221
0.407902 -0.420149 -0.312301
-0.805202 -0.312518 -0.452132
0.907851 -0.654805 -0.200837
-0.965795 -0.0794609 0.276631
-0.458305 0.354252 -0.331341
0.70348 -0.33346 -0.370197
0.0674111 0.525975 -0.80254
-0.304242 -0.154133 -0.633383
-0.793341 0.00762139 0.177984
-0.500548 0.322584 -0.649445
-0.816381 0.394464 -0.340184
0.876086 -0.641449 -0.277646
-0.0791363 -0.580196 -0.587482
-0.652572 0.41366 -0.0202814
-0.167835 -0.559499 -0.715746
0.764372 0.388637 0.170945
-0.227977 0.15833 0.859492
0.972757 0.289344 0.169298
0.884994 -0.413978 0.0711359
0.83129 -0.600653 0.334342
-0.125166 -0.44286 -0.841603
0.31236 -0.255142 -0.653785
0.160947 -0.159034 0.996153
-0.394989 -0.110266 0.593212
0.331015 0.0990405 1.07272
-0.876406 0.751528 -0.0247959
0.585099 0.435823 -0.210359
0.744386 -0.601146 -0.488701
0.778776 0.0835496 -0.289386
-0.219116 -0.168732 -0.666467
-0.45892 0.314743 -0.674893
-0.927677 -0.271461 -0.230809
0.418797 -0.131803 0.872126
0.228741 -0.500572 -0.817086
-0.927682 -0.14754 0.515027
-0.0850735 -0.258318 -0.500923
-0.569994 -0.365326 -0.676432
-0.0149583 0.549474 -0.519588
-0.316682 -0.0076732 1.08768
0.964441 -0.648242 -0.0230625
0.136759 -0.615008 -0.568952
0.206849 0.239289 -0.457728
-0.0854754 -0.234144 -0.528165
0.809954 0.00824036 0.11015
-0.321415 0.142522 0.827429
-0.456414 -0.26339 -0.252148
-0.994628 -0.191157 0.255196
-0.353926 -0.404705 -0.787352
0.672038 0.342033 0.350901
-0.786115 0.0184159 0.245151
-0.853454 0.60558 0.331211
0.689457 0.353918 0.278667
-0.593732 0.340599 -0.587581
0.0406977 -0.210809 -0.703519
0.945776 0.2557 0.375482
0.726326 -0.596654 -0.50988
-0.833908 -0.114833 0.693517
-0.358357 0.596333 -0.724318
0.0926056 0.210478 0.942255
-0.661231 0.419025 0.0141627
0.760166 0.185826 0.761735
-0.0690323 -0.451957 -0.84599
0.12115 0.161124 1.07214
0.842075 -0.763893 -0.0220398
-0.414613 0.345001 -0.36876
0.386858 -0.41566 -0.330312
-0.642811 -0.473371 -0.270836
0.550758 -0.695974 -0.296346
-0.644488 -0.0840276 -0.36411
-0.0328447 -0.0454139 0.74122
-0.02289 0.277241 -0.50166
0.428947 -0.424638 -0.294289
0.747098 -0.395074 0.0527378
0.841612 0.373246 -0.327248
0.664282 0.116202 -0.457458
0.434532 0.164795 -0.652333
0.644279 0.320609 0.160062
-0.161546 -0.399796 -0.83926
-0.988231 -0.236867 -0.0262482
0.403782 0.478175 -0.399721
-0.820806 0.701925 -0.277493
-0.765904 0.0322249 0.329343
0.712395 0.103923 -0.397944
-0.499086 0.109602 0.724483
0.603921 0.43004 -0.179564
0.57442 0.304139 0.56532
-0.763801 -0.371968 0.334619
0.600651 0.312152 0.5226
-0.909053 0.73394 -0.0271958
0.517064 -0.447144 -0.187516
0.569417 -0.465153 -0.089337
-0.798115 0.600705 0.337152
-0.413631 -0.523588 -0.482683
0.767194 -0.052327 0.527091
-0.0991363 -0.189625 -0.659999
-0.985216 -0.180062 0.322947
0.0770008 -0.475624 -0.843249
0.438307 0.117809 1.02821
-0.739867 0.764954 -0.0052385
0.109029 -0.610452 -0.575587
0.436968 -0.277018 -0.5977
0.365813 -0.411171 -0.348324
0.612773 0.151859 0.910855
-0.0221806 0.191586 0.886348
0.831221 0.206157 0.658199
0.083817 0.324781 -0.465604
-0.654738 0.353482 -0.53559
-0.874738 -0.291518 -0.342613
0.00745542 0.237079 -0.778973
-0.801928 0.777126 -0.0170014
-0.0108591 -0.202959 0.967151
-0.796196 -0.374212 0.29748
0.569439 0.154359 -0.0993813
-0.783068 -0.398124 0.172141
0.60512 -0.651387 0.0334008
0.410714 0.200314 -0.331747
0.894356 0.228706 0.534093
-0.933569 0.444017 -0.0616504
-0.485631 -0.381315 -0.728084
-0.779851 -0.391595 0.21295
0.163792 -0.0909054 1.0837
0.165057 0.24649 -0.473079
0.141291 0.317898 -0.835615
0.254126 0.0859487 1.09745
-0.639345 -0.299857 0.260589
-0.956849 0.470044 0.0758653
-0.647452 -0.0695286 0.90067
-0.0925218 0.180324 0.882611
0.467707 -0.675923 -0.390024
0.722273 -0.0660504 0.600279
0.164169 0.488373 -0.805747
-0.206399 0.581024 -0.481395
0.808647 0.383398 -0.380929
-0.905963 -0.280632 -0.2832
-0.903027 0.742813 0.230496
0.608693 -0.713682 -0.202025
0.771476 -0.607883 -0.456932
0.552084 0.297866 0.597458
-0.228767 -0.078284 0.696222
0.0734365 -0.359793 -0.460645
0.852313 -0.38615 -0.0805371
-0.772439 0.381484 -0.407714
0.978458 -0.556251 -0.010445
0.929577 0.244466 0.443183
-0.0873869 -0.290371 -0.482799
-0.777706 -0.387242 0.240157
0.821645 -0.0310551 0.405932
-0.94941 -0.156722 0.462576
-0.492551 -0.118906 -0.520358
0.0459459 0.0517475 1.13164
0.0177987 0.0471838 1.13386
0.598584 -0.624436 0.0387584
-0.707562 -0.343408 0.504055
-0.91682 -0.276047 -0.257005
0.425086 -0.666967 -0.426356
0.893597 0.0317827 0.113902
0.157959 -0.175933 0.960045
0.0219359 0.269993 -0.498194
-0.833897 0.00644908 0.241846
-0.614977 -0.111885 0.226335
-0.179102 0.0152001 1.12066
-0.472157 -0.128445 0.512699
-0.642538 -0.0648461 0.223093
0.122494 -0.181611 0.96282
0.612176 0.121215 0.099654
-0.173789 0.301837 -0.481565
-0.750723 0.0400919 0.376114
0.311284 0.220433 -0.406181
-0.271747 -0.302073 -0.39988
0.833725 -0.644515 0.329024
