0.215094 -0.263091 0.39324
-0.27598 -0.0995418 0.477385
-0.176128 0.642964 0.574454
-0.437226 -0.064099 -0.0866549
-0.322145 0.543289 -0.374045
0.443504 0.540949 -0.198541
-0.090273 0.0195491 -0.579607
0.137632 -0.549427 -0.437797
-0.187754 -0.186172 -0.568832
0.189251 0.884005 -0.0323364
0.278343 -0.529899 0.396182
0.132166 0.0833826 -0.527078
0.324444 0.380629 0.610573
0.598389 0.0501477 0.232597
0.367792 0.62608 0.491992
-0.549409 0.485101 0.259708
0.563137 0.310935 0.087974
0.230369 0.652764 0.567772
-0.114286 -0.307297 -0.617005
0.517831 0.476147 0.370725
-0.372826 -0.154455 0.230782
0.227285 -0.504827 -0.169961
-0.423799 0.684152 -0.0379718
0.33739 -0.446984 0.0103089
-0.477499 0.100393 0.264468
-0.426242 0.193522 0.504353
0.0905624 0.0822742 -0.587207
-0.401974 0.0979798 0.46443
-0.051397 -1.07923 0.194754
0.559262 0.245359 0.14751
-0.260941 -0.224851 0.322604
0.304653 -0.188091 -0.446673
-0.522683 0.376369 0.350798
0.43655 -0.152459 -0.0155384
0.266337 0.777527 -0.238153
-0.297261 -0.474055 0.311115
-0.261746 -0.85338 0.0585983
-0.0368918 -0.6655 0.304165
0.0944835 0.858341 -0.219082
0.399655 0.261569 -0.310719
-0.557113 0.280746 0.180371
-0.248762 -0.764974 0.168803
-0.465167 0.0294666 -0.0476264
-0.554086 0.253813 0.10648
0.269989 -0.0102412 0.556582
0.271816 0.339369 0.652528
-0.352878 0.770531 -0.0468368
-0.130601 -1.06839 0.186865
-0.0895838 0.408662 -0.53573
-0.334085 -0.367027 0.129402
-0.563598 0.33105 0.231241
-0.117494 -0.794873 0.221703
-0.135993 0.36884 0.672315
0.315346 0.796748 -0.123846
0.324538 -0.397794 -0.374276
0.301632 -0.396827 0.258944
-0.279979 0.835324 0.132072
-0.281379 -0.167299 -0.473855
0.200913 0.274013 0.686705
0.361408 -0.190274 0.144107
-0.213716 -0.919237 -0.170784
0.566581 0.332077 0.1566
0.104202 0.906885 0.208464
0.192442 -0.74814 -0.130949
-0.457807 -0.0398733 0.0872834
0.328651 0.013524 -0.436593
-0.465155 0.654489 0.312675
-0.0565986 -0.158601 0.54862
0.54223 0.432125 -0.000968812
-0.153455 0.84934 -0.199262
-0.350459 -0.348738 -0.28871
-0.122098 -0.560202 -0.39652
0.545952 0.505822 0.036866
0.361645 0.519676 0.546171
-0.261678 -1.03836 -0.0290689
-0.2281 0.806984 -0.221376
0.195561 -0.378068 -0.527845
0.0329564 -0.0892969 -0.693773
-0.452342 -0.0906666 0.243739
0.486551 0.0119409 0.0644408
0.551021 -0.000839563 0.101178
-0.44198 0.417648 -0.214682
-0.0718344 0.911521 0.102249
0.0440719 -0.667614 -0.222303
-0.410824 -0.150084 -0.124178
0.430787 0.483918 -0.237704
-0.413073 -0.234796 0.0862207
-0.150776 0.318778 -0.530208
0.514531 0.600262 0.307217
0.396749 0.561922 0.497297
0.504387 0.120118 -0.00337751
-0.320209 -0.833425 -0.0764226
0.286673 0.629335 -0.384813
0.112608 -0.0355919 0.614765
0.368794 -0.276589 -0.272547
0.226404 0.260247 -0.489924
0.53472 0.165272 0.16725
-0.158716 -0.112146 -0.55505
0.564058 0.295869 0.220793
-0.222603 -0.346029 -0.523035
0.252009 -0.914863 -0.0162915
0.0644014 0.0786292 0.662815
-0.343268 -0.537997 0.0539474
-0.399352 0.727102 0.0238358
-0.365922 -0.614153 0.0505639
0.176918 -0.594644 -0.169771
-0.310192 -0.346284 0.212076
-0.449276 0.667626 0.0262608
0.259273 -0.342536 0.327825
0.448478 0.241654 -0.221975
-0.299412 -0.762671 -0.0785853
-0.101592 0.00878374 0.632306
-0.497468 0.329407 -0.112016
0.538491 0.432128 0.308676
0.518851 0.15597 0.300613
-0.347791 -0.101249 -0.400755
0.488951 0.235669 0.415234
0.127285 -0.0522612 -0.618393
-0.486564 0.119091 -0.0275024
0.192374 -0.6392 0.320242
-0.287858 -0.98777 -0.0824194
0.187018 -0.539706 -0.370391
0.483776 0.25161 -0.149721
-0.448257 0.480758 -0.184501
-0.0943447 -0.564965 -0.530936
0.123024 -0.222548 -0.621357
-0.264587 0.553703 -0.421597
0.0932042 -1.00026 0.209135
-0.205844 0.734824 -0.338101
0.00486818 0.234966 -0.570227
-0.343499 0.623475 0.460677
0.52462 0.246279 -0.0441893
0.0994706 0.797966 0.496137
0.042933 -0.230432 -0.641434
0.269191 0.74896 0.463474
-0.0195227 -0.77159 0.235105
0.598644 -0.0314375 0.234798
0.350972 -0.527739 0.0221853
0.342016 0.792977 -0.0548309
-0.43685 0.71013 0.269174
-0.559856 0.333238 0.131294
0.155625 -0.845019 -0.14667
0.465514 0.686049 0.204128
-0.45467 0.16244 0.446374
-0.15345 0.879494 -0.120822
0.0318585 -0.364071 -0.609599
0.21152 0.150783 0.654984
0.0297021 -0.0654677 0.608455
0.229539 -0.187361 0.441477
-0.043173 0.534357 -0.494735
0.291016 0.843913 0.0720364
0.347131 -0.352754 0.0997631
0.0719174 -0.870075 0.213325
0.188247 0.0840589 0.641672
-0.0369566 -0.0684749 -0.681083
-0.150974 0.892501 -0.0338794
-0.29533 -0.854107 -0.011326
-0.486812 0.581766 -0.0252482
0.369787 0.671669 -0.244193
0.398144 0.685397 -0.171174
-0.30932 -0.408271 -0.415456
-0.248734 -0.496321 -0.4451
0.392517 -0.2803 -0.173744
-0.560839 0.411192 0.105727
0.231819 -0.786412 0.166957
-0.274027 -0.938477 -0.137678
0.349773 0.804663 0.0316738
0.355706 -0.679759 0.05425
-0.0977118 -0.849632 -0.176545
0.229935 -0.609223 -0.12198
-0.365778 0.504365 -0.335074
-0.327343 -0.411669 0.184312
-0.168162 -0.585516 -0.190635
-0.557018 0.501605 0.131736
0.525047 -0.00220809 0.204553
0.257281 -0.654638 0.292156
0.248241 -0.257497 0.327504
0.0980341 0.753084 -0.36297
0.107021 0.838019 0.431834
0.0325741 0.699917 -0.413357
0.352243 -0.569772 0.27317
0.187672 0.199704 -0.461749
-0.527397 0.551792 0.313694
-0.0878462 -0.534057 -0.610531
-0.34233 -0.209355 0.193193
-0.125927 -0.135265 0.535975
0.089883 -0.714576 0.271417
-0.12102 -0.936868 0.192032
-0.46777 0.562521 -0.097536
0.3532 -0.136578 -0.377177
-0.00167944 -0.570515 -0.350789
0.306725 -0.467708 -0.0524314
0.158881 0.208316 0.68288
0.518226 0.414401 -0.0801293
-0.230195 0.844372 -0.141006
-0.38013 -0.127713 -0.331575
0.144176 -0.354801 -0.56996
-0.154527 -0.563179 -0.325202
-0.540462 -0.01356 0.220756
-0.196994 -0.632542 -0.142489
0.00372004 0.247186 0.720801
0.16191 -0.537473 -0.218889
0.444216 -0.0561109 0.206476
0.145783 -0.556605 -0.312731
0.481466 0.0530432 0.228984
-0.366407 0.586919 -0.303276
-0.358648 -0.680771 0.0792197
0.443494 0.399493 0.503651
0.27332 -0.255476 -0.463393
-0.260626 0.233983 -0.467938
-0.0488071 0.0633082 -0.65884
-0.402724 0.291269 -0.294518
-0.421954 -0.178972 0.013041
0.437587 0.0436245 -0.272393
0.360948 -0.624587 0.152488
-0.310329 0.104363 -0.403351
0.337728 -0.403719 -0.273987
0.151486 -0.433368 -0.571943
0.32009 -0.303903 -0.414683
-0.0611568 -1.00354 0.199813
-0.0726943 -0.246494 -0.62421
0.0143429 0.881221 -0.169417
0.397076 -0.1111 -0.284775
-0.417158 -0.152064 -0.0527807
0.0608062 0.104073 -0.647474
-0.0699787 -0.407817 -0.635398
-0.0441275 -0.345203 -0.612362
0.555968 0.481124 0.115694
-0.325314 -0.294792 0.113152
-0.29341 0.828253 0.0592148
0.389428 0.0756568 0.484953
0.566355 0.417498 0.149302
-0.242147 -0.821851 0.12398
0.211143 0.668792 -0.403403
0.369854 -0.0631344 -0.372211
0.180738 0.348291 0.687863
-0.320113 0.433865 0.565503
0.0708599 -0.156725 -0.649326
0.48398 0.568101 0.389549
-0.117255 0.0713804 -0.525305
0.472051 0.334969 0.463206
-0.0768047 -0.405894 0.470574
-0.023839 0.658963 -0.440605
-0.50789 0.6405 0.141476
-0.0713034 -0.580446 -0.332538
-0.550943 0.309346 0.0466629
0.431815 0.578852 0.436027
-0.355953 0.78237 0.0657288
0.26642 -0.474592 -0.113467
-0.401849 0.748487 0.169421
0.263803 0.250077 0.655733
-0.00402365 0.513356 0.653594
0.438335 -0.0196759 0.327599
0.271728 0.852906 0.143881
0.318547 0.290542 0.633462
0.28335 -0.89441 -0.0772091
0.283627 -0.175098 0.392174
0.161854 0.618283 0.608551
0.0595773 -0.795647 0.228576
-0.0556289 0.771818 -0.334684
-0.0737396 0.527927 0.64282
-0.488227 0.501682 0.399701
0.375804 0.0103071 0.457976
0.423059 -0.0789396 0.291909
-0.236402 0.60481 0.558978
0.126469 -0.101757 0.57708
0.0394553 -1.07517 0.20283
0.516115 0.323093 -0.0940503
-0.130925 0.790062 -0.29768
-0.290315 0.299435 0.619468
0.455729 0.692463 0.0853407
0.183943 0.729161 -0.358899
0.436042 0.667047 -0.110238
-0.280061 0.82941 -0.071833
-0.435668 0.550427 -0.18785
0.367564 -0.539639 0.159349
-0.252826 0.850921 0.00605505
0.194795 0.872282 0.292293
0.319777 -0.588256 -0.0382424
0.386696 0.680345 0.4107
0.0581477 -0.0628769 -0.63135
-0.337938 -0.477758 0.212472
0.0193591 -0.137071 0.574637
-0.104335 0.857545 0.388734
0.36725 0.44227 -0.36207
0.538192 0.171295 0.0781739
0.376589 -0.20915 -0.289862
-0.381479 0.408157 0.533687
-0.132767 -0.209915 -0.631927
-0.209015 -0.540061 -0.278979
-0.00104983 0.175376 0.703527
0.371833 0.306914 0.58835
0.493484 0.404956 -0.147932
-0.272437 -0.525934 -0.06422
0.10812 -0.683247 -0.194843
0.246181 -0.512672 -0.333858
0.0763992 0.391477 -0.544235
-0.210092 -0.409202 0.389847
0.546095 0.216625 0.258917
0.0944246 -0.399603 -0.610594
-0.516877 0.261169 -0.0479859
0.45605 0.101293 0.397805
-0.204178 -0.703703 0.260367
-0.172709 -0.618681 0.328267
-0.140104 -0.394921 -0.592864
-0.358617 -0.362968 -0.143265
0.29455 0.122942 0.609556
0.200035 -0.954582 -0.137742
0.276891 0.181503 0.643788
0.409563 0.736407 0.239413
0.118868 0.569497 0.635341
-0.0966318 0.834643 -0.248129
0.462723 -0.200728 0.0543012
0.0199112 -0.706708 0.264872
0.235659 -0.082867 -0.519732
-0.463677 0.314538 -0.175445
-0.197673 -0.0514313 -0.536445
-0.126873 0.813339 0.46703
-0.386559 0.72259 -0.0924917
-0.0267106 -0.0608915 -0.776453
-0.38779 -0.284619 -0.1259
-0.331519 -0.390997 -0.349808
0.318526 0.678451 -0.310406
-0.291294 0.805567 -0.138777
-0.44805 0.627838 -0.0762914
-0.0527361 0.214986 -0.512069
-0.561867 0.405276 0.186968
0.131784 -0.345787 0.474536
-0.235982 -0.582986 0.347479
-0.354398 -0.191652 -0.359212
0.45189 -0.121246 0.143279
-0.112134 -0.75556 -0.182241
0.291807 0.83752 0.223363
0.572495 0.0876909 0.176735
0.541819 0.564198 0.0763227
-0.302261 0.468561 -0.410446
-0.368292 0.773789 0.254809
-0.373344 0.155565 0.538244
-0.537334 0.239635 0.0312103
0.28771 0.296919 -0.473152
-0.0968719 0.726212 0.551074
0.549692 0.306248 0.0177479
0.00870127 -0.593564 -0.257147
0.238928 -0.837753 0.0868422
0.458666 -0.0553911 0.0726488
-0.535207 0.211842 0.207767
0.523043 0.504068 -0.0293657
-0.32586 -0.166032 -0.418588
0.209324 -0.085586 0.568513
-0.0733103 0.204352 0.70906
0.47733 0.06487 0.305997
0.265289 0.365671 -0.488778
0.152383 0.881637 -0.110112
0.341886 0.297918 -0.426338
0.333928 -0.300682 0.049369
-0.428652 -0.0760602 -0.186594
-0.556811 0.00712693 0.290842
-0.191428 -1.06519 0.129088
-0.423545 0.347048 -0.247423
-0.223637 -0.208724 0.380421
-0.145595 0.44399 -0.506068
-0.238303 0.355168 0.636423
-0.205828 0.762106 0.475351
0.418334 0.738136 0.123134
-0.516651 0.152759 0.173234
0.51331 0.117883 0.220232
-0.407468 0.0241835 0.409639
-0.243992 0.663837 -0.377213
-0.351396 0.117962 -0.341234
0.524076 -0.137893 0.167445
0.216146 0.490703 0.640608
0.438176 0.506154 0.473099
-0.35325 -0.220406 0.123157
-0.120772 0.208963 -0.476728
0.00710994 0.430553 -0.530536
-0.378706 0.364466 -0.34109
0.184694 0.832957 0.405628
0.0807696 0.885482 -0.142206
0.527368 0.0732611 0.0543232
-0.357166 -0.342184 -0.21324
-0.241177 0.846675 0.282286
-0.170362 -0.701504 -0.154613
-0.524031 0.447725 -0.0370046
-0.00708795 -1.02006 -0.201023
-0.355279 -0.623519 0.183937
-0.402926 -0.162405 -0.193606
-0.409128 -0.0319163 0.348961
-0.154762 -0.565798 0.384135
0.210967 -1.04061 0.0508134
-0.403779 0.412333 -0.278062
-0.448052 0.24024 -0.193184
0.398823 0.158485 0.518106
-0.294342 -0.788185 0.0537761
-0.334626 -0.421521 -0.265359
0.3951 0.190228 -0.306825
0.118528 -0.634735 0.335816
-0.189423 0.0138297 0.608151
0.241576 0.0502684 0.607067
-0.284428 -0.160827 0.385523
0.423677 0.140573 -0.262522
-0.421564 0.625029 -0.158122
0.247619 -1.01871 -0.0363108
-0.124432 0.25428 0.699953
-0.430356 -0.165966 0.0855967
-0.388564 0.0364146 -0.35884
-0.219403 0.303327 -0.506891
0.290139 -0.110236 -0.466772
-0.0227122 0.612225 0.617565
0.0845407 -0.851915 -0.16066
0.226729 -0.910885 0.0498207
-0.192182 0.368849 -0.500399
0.550397 -0.0837394 0.210533
-0.310424 0.0463929 -0.449504
-0.0301485 0.0262931 0.646767
-0.358483 0.313745 -0.388282
0.282236 -0.633683 -0.0823
-0.384843 -0.0516206 -0.353167
0.238305 -0.422849 0.392581
-0.450608 0.349489 0.463588
0.105561 0.571426 -0.483741
0.204292 0.44823 -0.496614
-0.485639 -0.146886 0.150649
-0.0475318 -0.0124755 -0.727465
0.0590343 0.00553737 0.635144
0.426899 -0.127749 -0.0967765
0.0542874 0.52308 -0.495406
0.359292 -0.341746 -0.165235
-0.403515 0.588491 -0.240064
-0.166599 -0.30593 0.396416
-0.0663789 -0.98047 -0.201741
0.134701 0.474534 0.667853
-0.372257 -0.329278 -0.0667582
-0.346345 0.794588 0.143817
-0.0149471 0.315038 0.708502
0.0791682 0.914626 0.118957
0.463147 0.344342 -0.210827
-0.00808938 -0.837513 0.213608
-0.365878 0.691741 -0.205013
-0.218854 -0.0876805 0.53195
0.159783 0.627322 -0.447882
0.0178271 0.59533 -0.47046
-0.202204 0.580283 -0.440177
0.284427 -0.800653 0.028061
0.0306058 0.824999 0.469473
0.0170834 -0.413545 0.469989
0.294178 -0.250665 0.254202
0.195026 0.112297 -0.491455
-0.363056 -0.687945 0.00729961
0.438824 0.000113655 -0.199913
0.0864456 -0.570678 -0.392201
0.0138179 -0.233889 0.480516
0.294545 0.840367 0.000975312
0.31859 -0.388416 -0.122917
-0.205699 -0.82783 0.185774
0.388552 -0.159554 0.0851039
-0.185868 0.177479 -0.470474
-0.17819 -0.77104 -0.149562
0.148552 -0.50172 -0.552926
0.32847 -0.688596 0.124554
0.278902 -0.750601 0.120949
-0.305128 0.812536 0.291092
0.117668 0.388428 0.69327
-0.235342 -0.506991 -0.133658
0.28915 0.227574 -0.446223
0.118028 0.0160931 -0.577564
0.0900556 0.461592 -0.516777
-0.269188 -0.923297 -0.00887166
0.256343 -0.732736 -0.105793
0.333225 0.693583 0.463901
0.540663 0.191029 0.0351148
0.173423 -0.2314 0.449132
0.46049 -0.029298 0.00697592
0.347213 0.749443 -0.171405
0.193584 -1.02749 -0.150175
-0.121215 0.897353 0.193322
0.318717 -0.651707 0.203427
-0.194056 -0.513246 0.422251
-0.26261 -0.0254169 -0.49754
-0.139416 -0.480719 0.464144
-0.320871 -0.0515346 -0.448491
-0.19587 0.290954 0.670979
-0.235066 -0.274905 -0.527535
0.157806 -1.00281 0.17756
0.165793 -0.674735 -0.149633
0.53071 0.253386 0.328115
-0.506068 0.188668 -0.0609776
-0.484103 0.444387 -0.110556
-0.0657811 -0.715478 0.263218
-0.235387 -0.146645 -0.529945
-0.167692 0.506258 -0.476295
0.402297 0.745399 -0.0278601
0.184252 0.346936 -0.528181
0.493486 0.603445 -0.0585862
-0.322735 -0.276823 0.181194
-0.0683177 0.907984 -0.0529177
-0.214272 -0.525771 -0.206506
-0.0622899 -0.0794326 -0.607549
-0.467011 0.240529 0.459377
0.278692 -0.349011 -0.459742
-0.487946 0.082031 0.040121
-0.0674267 -0.562296 -0.446622
-0.25914 0.108068 -0.464517
0.409645 0.709074 0.327767
-0.261281 -0.832741 -0.122426
-0.449248 -0.00746064 -0.153405
0.0717258 0.171135 -0.57046
-0.147728 -0.939657 -0.196692
0.125306 0.173575 -0.480556
-0.237368 0.0665001 0.604199
0.427447 0.298858 -0.25811
-0.29551 -0.031475 0.506416
0.0823551 -0.497821 0.480052
0.0595893 0.294345 0.705176
-0.0593043 0.456887 0.664579
0.437518 0.0340517 0.372973
0.264513 0.453514 -0.456418
0.399187 0.583822 -0.271936
0.355451 -0.516402 0.227726
0.364329 0.243771 -0.38188
-0.127671 -0.250571 0.431793
0.0465102 0.831768 -0.264232
0.327196 -0.536351 0.344918
-0.17107 -1.00591 0.167798
-0.504658 0.0284281 0.0937029
0.293069 -0.467526 -0.299568
-0.306429 0.754183 0.38985
-0.362915 0.650136 -0.264851
0.0322275 0.904319 0.26445
-0.037707 0.895685 -0.124309
-0.202949 0.532417 0.603156
-0.261551 -0.410632 -0.486774
-0.150813 0.893998 0.0474945
0.345344 0.176547 -0.373627
-0.236386 0.494234 -0.452495
-0.230523 -1.05305 0.0461011
0.446377 0.250997 0.486238
-0.27955 -0.499871 -0.274122
-0.109193 -0.137372 -0.611836
-0.30606 0.61485 -0.359837
0.085297 -0.256508 0.481381
0.263624 -0.545647 -0.104265
0.352103 -0.237056 -0.359992
0.274152 0.68496 0.523278
0.0873216 -0.401199 0.476746
-0.215007 -0.892353 0.122081
-0.255895 -0.68086 -0.101196
-0.0290988 0.327085 -0.540868
0.459753 0.0709271 -0.192699
0.271586 0.00367572 -0.476559
0.0639559 -0.573604 -0.311816
0.267518 -0.453319 -0.431948
0.262766 -0.8304 -0.100671
0.345998 -0.142549 0.35034
-0.109571 -0.0477329 -0.566694
-0.236867 0.230992 0.656901
-0.265108 0.135168 0.615296
-0.260667 0.81971 0.359013
-0.0632767 -0.912268 -0.184422
-0.168801 0.83572 0.409291
0.362225 0.0871136 -0.382826
-0.497607 0.635677 0.0716068
0.30344 -0.195827 0.298417
-0.541018 0.308032 0.325685
-0.319978 -0.429483 0.0409236
-0.43754 0.429759 0.475952
0.540013 0.341474 0.334601
-0.468798 0.383954 -0.1573
-0.244894 0.00174075 0.56682
0.228268 -0.888084 -0.121651
-0.555443 0.392655 0.280269
0.459706 0.418696 -0.207751
0.26805 0.839481 0.289693
-0.260061 -0.291235 0.283384
0.31301 0.0525703 0.550246
-0.0297786 -0.557114 0.42335
0.0125097 -0.301049 -0.634922
-0.375287 0.203055 -0.333758
0.0165786 0.185956 -0.648508
-0.249459 -0.633672 0.297951
0.198353 -0.0184023 -0.532217
0.272593 0.838763 -0.0681072
-0.00818146 -0.562581 -0.484794
0.351971 0.616035 -0.324339
-0.241828 -0.98483 0.0258811
0.0904497 -0.31864 -0.619193
-0.404331 -0.210811 -0.0895715
0.558638 -0.065615 0.139707
-0.0459789 0.901566 0.256053
-0.229259 -0.987458 -0.188377
-0.158928 0.465374 0.636764
0.140625 -0.454425 0.469718
0.423579 0.318136 0.542103
-0.40953 0.341629 0.520615
-0.0929784 0.621956 0.603559
0.46506 0.600585 -0.125204
-0.193206 0.103178 -0.495785
0.55803 0.239257 0.0768401
-0.0238303 -0.921728 0.200799
0.0965156 0.660606 -0.438103
-0.0807588 -0.0167535 -0.639065
-0.00689624 -0.84824 -0.183031
0.358747 -0.339304 -0.241808
-0.166695 0.192534 0.68218
0.269899 0.443619 0.63204
-0.209674 -0.978944 0.0974312
-0.311254 -0.495821 0.00246083
-0.117504 0.888638 0.26362
-0.321827 0.110879 0.555788
-0.555039 0.402343 0.0293292
-0.112079 -0.465763 -0.632898
0.182046 0.768541 0.497607
0.0158693 -0.555388 -0.575224
-0.518523 0.15018 0.0284398
0.12304 0.312809 -0.537008
0.389658 0.373942 0.569377
-0.127163 -0.341323 0.44522
0.143159 0.902614 0.0420706
-0.321247 -0.24891 -0.411404
-0.464581 0.690469 0.179603
-0.488706 -0.172273 0.228248
-0.400797 0.491145 -0.275671
-0.0789532 0.874251 -0.179974
-0.423516 -0.0587083 -0.255688
0.518338 0.295045 0.38395
-0.525295 0.526002 -0.00481694
-0.079885 -0.877121 0.200546
0.110578 -0.580713 0.387597
-0.264599 0.53353 0.568566
0.15137 0.418072 -0.532846
-0.0321804 -0.608682 0.36465
0.316619 -0.740588 0.0492858
0.182127 0.711323 0.547406
-0.186056 0.874109 0.245757
-0.46833 0.0912366 -0.0976429
0.43729 0.655349 0.36721
0.351919 -0.420357 0.0768284
-0.0496409 0.166739 -0.577437
0.223106 0.59819 -0.439887
0.350262 0.794945 0.23638
-0.173357 -0.254957 -0.58822
0.0363024 0.362059 0.699743
-0.277672 -0.468181 -0.19351
-0.2949 0.773002 -0.205372
0.131813 -0.186481 0.518743
0.0836484 0.181155 0.693309
0.350758 -0.455817 0.162842
-0.497989 0.266859 0.401317
0.087046 0.903402 -0.0666002
0.227227 0.875483 0.0867705
0.419903 -0.231252 -0.0402093
0.18359 -1.05276 0.11497
-0.184051 0.857069 0.335383
0.150653 0.500425 -0.496757
0.253465 0.797683 0.405352
-0.422925 0.721642 0.106301
0.082968 -0.926468 -0.167662
-0.0173215 0.744345 0.551618
0.205113 0.770659 -0.301948
0.0479343 -0.631385 0.338636
0.372478 0.760022 0.294437
-0.0195482 0.0526621 -0.721702
-0.233424 0.042925 -0.50197
0.0695793 0.913889 0.00560673
-0.44317 0.0237962 -0.228124
-0.221305 -0.150683 0.466968
0.065536 -1.02815 -0.185858
0.177243 -0.19184 -0.582806
-0.319023 -0.690862 0.141269
-0.0992918 -0.637838 0.322634
-0.214788 0.429931 -0.471208
0.375439 0.327177 -0.371148
-0.313201 0.279369 -0.454773
-0.546942 0.558217 0.233337
-0.188889 0.135306 0.647378
0.314765 0.392306 -0.446666
-0.333112 -0.0663968 0.448724
-0.524311 0.446608 0.340175
0.322724 -0.119926 0.414244
0.474754 0.0997055 -0.103195
-0.146745 -0.187992 0.47139
-0.43656 0.0904977 0.402625
0.212284 -0.250727 -0.552605
0.0105842 -0.921578 -0.178101
-0.0710484 0.0915682 -0.586008
0.126099 -0.982808 -0.170378
-0.0290532 0.826336 -0.270185
0.0460958 0.577536 0.635098
-0.415939 0.0899139 -0.276735
0.552862 0.500642 0.186675
0.331958 -0.66292 -0.0171422
0.531249 0.526341 0.308979
-0.318272 -0.356376 0.0618835
0.255361 -0.993152 -0.113248
-0.293696 -0.298092 -0.465241
-0.0855902 0.314159 0.69682
-0.349158 -0.284517 0.0406117
0.220888 -0.510383 -0.42457
0.131585 0.815746 -0.270084
0.129381 0.0418308 0.640615
-0.0516261 0.467063 -0.515537
0.360181 0.535669 -0.354282
0.0941449 0.700604 0.576404
-0.525367 0.339202 -0.0456403
-0.243289 -0.750847 -0.119632
0.293554 -0.322624 0.253783
0.0408037 -0.953258 0.208235
0.241161 -0.189336 -0.495519
0.0100313 -0.481919 -0.637335
-0.27166 -0.0942426 -0.484842
-0.344111 -0.355367 -0.00595062
-0.192303 -0.536393 -0.425217
0.30468 -0.601033 0.315394
0.399344 0.0326693 -0.345395
-0.301696 0.592124 0.517833
-0.474431 0.159078 -0.119236
0.00966574 0.752093 -0.367006
0.188442 -0.0010758 0.607274
0.34353 -0.225284 0.0826354
0.444712 0.680795 -0.036491
-0.484297 0.661771 0.243235
-0.321693 -0.552032 0.308187
-0.147022 0.57593 0.609228
0.224506 -0.975396 0.0184421
0.426119 0.613953 -0.189712
0.0601923 -0.562017 -0.467041
-0.451079 0.0714235 -0.17006
0.00758016 0.918668 0.0878582
0.476488 -0.127283 0.0382969
0.330349 0.814713 0.163252
-0.209671 -0.339654 0.347756
0.337257 -0.231916 0.19728
0.142416 -0.271717 -0.575147
0.435708 0.143154 0.454121
-0.200967 -0.482476 -0.524949
0.409113 0.0988555 -0.322111
-0.249404 -0.500728 0.378314
0.131397 0.288519 0.69823
-0.46641 0.0132656 0.0321939
-0.222088 0.865888 0.0913417
0.369651 0.788919 0.10753
0.171782 0.890766 0.22232
-0.209097 0.869959 -0.0723364
0.168917 -0.926836 0.169107
-0.12023 -0.0801668 0.587805
0.14657 -0.519103 0.44022
0.00735496 -0.132888 -0.630207
-0.341498 -0.443392 0.107137
-0.435857 -0.0986219 0.136148
-0.345105 0.755329 -0.141345
-0.302789 -0.415779 0.257645
0.325045 -0.0589389 -0.426995
0.28089 0.156257 -0.440347
0.217807 -0.333938 0.395317
0.485553 0.526253 -0.127801
-0.0388989 0.379756 0.692452
0.268793 -0.0764634 0.530069
0.10147 -0.580237 -0.231353
0.232045 0.840469 0.352716
-0.266795 0.734683 0.445788
-0.298547 -0.648707 -0.046699
-0.466836 0.571889 0.385189
0.544828 0.481107 0.255493
0.371157 -0.0687403 0.401637
-0.236251 -0.920048 0.0613104
0.319388 -0.730141 -0.0350273
-0.232335 -0.579547 -0.110622
-0.336828 -0.41713 -0.0822238
0.188768 -0.500798 -0.486827
0.543302 0.573691 0.150364
0.242198 0.531807 -0.45169
-0.0862857 0.628619 -0.452828
0.0765196 -0.782239 -0.177804
-0.198034 -0.413778 -0.54326
0.113917 -1.0712 0.205861
-0.485355 0.0820296 0.19438
0.0916106 -0.524532 -0.604628
-0.499932 -0.0590663 0.143457
0.105546 0.869419 0.3682
0.325763 0.728559 -0.237237
-0.335526 -0.593005 0.248439
-0.304699 -0.24373 0.246362
-0.342984 -0.115806 0.392181
0.478707 0.660442 0.021891
-0.357557 -0.0078097 -0.407674
-0.162079 -0.468767 -0.582829
0.41695 -0.0966564 -0.169149
-0.489244 0.341066 0.403069
-0.167336 0.71056 0.539498
-0.253503 -0.406781 0.328096
-0.530755 0.567376 0.0528882
-0.403745 0.642754 0.389318
-0.149117 -1.01325 -0.213913
0.407894 -0.0388237 -0.314977
0.0462423 0.296285 -0.538304
-0.207618 0.777451 -0.282499
-0.0797928 0.0767817 0.656614
-0.443194 0.00159734 0.278248
-0.455878 0.0775667 0.327577
0.355165 0.17564 0.578753
0.216752 0.0417861 -0.5012
-0.282033 -0.457343 -0.104192
0.0377042 -0.583766 0.389681
-0.365718 -0.54349 0.20504
0.0953973 -0.110556 -0.593461
0.265674 -0.46089 -0.209954
0.0427679 0.775102 0.530612
0.0429986 -0.190369 0.527415
0.235363 -0.316415 -0.505588
-0.329325 -0.415611 -0.190372
-0.0741917 -0.512213 0.470205
0.18533 -0.972785 0.115268
-0.205216 -0.26745 0.346232
0.357518 -0.289313 -0.0246948
-0.295912 0.376066 0.600139
0.092247 0.637905 0.609662
0.51805 0.638285 0.183598
0.143088 -0.844039 0.224722
0.380975 -0.145776 0.21329
-0.554908 0.479523 0.0462293
0.0406751 -0.332525 0.460757
0.0878109 0.00438126 -0.646761
0.195542 0.416872 0.670592
0.266375 -0.133177 0.474699
-0.386171 -0.235217 -0.193676
-0.420105 0.00820844 -0.299826
-0.28309 0.405823 -0.438022
-0.525156 -0.0930078 0.200198
0.503046 -0.156299 0.0976477
-0.350173 0.283854 0.582124
-0.550345 0.0480769 0.16574
-0.222673 0.436375 0.616402
-0.542591 0.575715 0.162817
-0.250162 -0.522093 -0.363277
0.36145 -0.155183 0.282171
-0.0572599 -0.640895 -0.224377
0.167479 0.845018 -0.211802
0.0748728 0.512423 0.657038
0.404023 0.35911 -0.311341
-0.154306 -0.41308 0.4451
-0.166246 -0.319504 -0.561856
-0.171622 -0.842549 -0.17233
0.0580788 0.439306 0.682629
0.385532 0.445474 0.544799
-0.3842 0.485612 0.503907
0.453703 -0.00948574 0.257885
-0.299149 -0.910358 -0.0755407
-0.0471449 0.879547 0.348754
-0.0213421 0.915996 0.163705
0.0105592 0.675235 0.590877
0.412357 -0.196822 -0.119902
0.278031 -0.415817 0.327202
0.238639 0.56503 0.60623
0.425025 0.410925 -0.268146
-0.0479739 -0.0866647 0.597766
-0.322923 0.508739 0.531253
0.461464 0.666713 0.286473
-0.0520182 0.832301 0.453872
-0.15393 0.681716 -0.403743
0.185484 -0.144217 0.535871
-0.300666 -0.465155 -0.363619
-0.321526 0.689105 0.433314
0.353038 0.111797 0.543392
0.446024 0.000168421 -0.0999478
-0.34405 -0.762165 -0.017457
-0.309858 0.81342 -0.00999206
0.396477 -0.269854 -0.0973603
0.157286 -0.0792386 -0.540066
-0.113452 -0.680214 -0.194986
-0.496156 0.102241 0.122121
-0.35377 -0.509652 0.136548
0.31151 -0.392941 -0.0478957
-0.352359 0.241375 -0.396205
-0.000611795 0.104376 0.678693
0.398561 -0.172124 -0.225398
0.56655 0.397206 0.0799019
-0.273152 -0.675999 0.225644
0.396789 0.473046 -0.304292
0.34871 -0.290884 0.14358
-0.387526 -0.178177 -0.267835
-0.483314 0.151011 0.367534
-0.489098 0.246875 -0.116566
0.370512 -0.578592 0.085043
0.0212635 0.887456 0.335654
0.161743 -0.693571 0.285571
0.391691 0.732019 -0.105915
0.205647 -0.572543 0.381936
0.301835 0.524234 0.590474
0.352154 -0.324916 -0.334963
0.512447 0.636153 0.085475
0.0059016 -0.481062 0.485809
0.306874 -0.806781 -0.0447128
0.358382 -0.49332 0.0908365
-0.0310843 -0.344398 0.469795
0.0486143 0.0469082 -0.693842
-0.150882 0.0630451 0.639831
0.320065 -0.471856 0.296634
0.477013 0.0542117 -0.00299838
0.419598 -0.0574689 -0.236644
-0.0180093 0.916844 0.0109561
0.485612 0.188307 -0.110921
-0.351468 0.0626393 0.503988
-0.305005 0.676035 -0.318456
0.565931 0.371203 0.229817
0.447341 -0.0831404 -0.036221
0.399774 0.226449 0.547492
-0.0524095 -0.179743 -0.65868
0.35919 -0.337351 -0.0924086
0.130319 -0.777543 0.246737
0.51958 0.388138 0.383123
-0.405671 0.221378 -0.273071
0.123278 0.894454 0.27542
-0.495804 0.504298 -0.0671647
-0.0650272 0.724834 -0.388262
-0.304024 -0.579782 -0.0257953
-0.111246 -0.580205 -0.266922
-0.101501 0.140067 0.679678
0.251027 -0.724705 0.220719
-0.403698 -0.2538 0.000551422
-0.133037 0.572807 -0.467499
0.271413 0.735535 -0.294318
0.330488 -0.372901 0.024128
0.219712 0.856555 -0.115244
-0.0841045 0.141344 -0.505149
-0.507331 0.158336 0.29438
-0.238595 0.69083 0.508748
-0.323358 -0.333623 -0.403653
-0.338991 0.411607 -0.389491
0.328076 0.496612 -0.405001
-0.362163 0.739473 0.346924
-0.38343 -0.599723 0.117092
0.477317 0.445666 0.446499
-0.384485 -0.115424 0.311913
-0.0902819 0.908769 0.0140002
0.510065 0.193292 0.361445
-0.208494 0.869803 0.174174
0.261641 0.694227 -0.350689
0.193104 -0.13963 -0.530186
-0.318437 0.198596 0.598249
-0.203768 -0.76718 0.223316
0.202809 -0.860531 0.148945
0.530961 0.191835 0.00604825
0.287059 0.0856223 -0.445594
0.180609 -0.398335 0.452985
0.0546071 -0.0220539 -0.742762
0.300374 0.800352 0.349375
0.218848 -0.505818 0.435436
0.531331 -0.0887546 0.0793527
-0.166192 0.0134735 -0.528901
0.197513 -0.794569 0.229326
0.534497 0.364565 -0.0253467
0.315644 -0.0216354 0.500619
-0.137894 0.743233 -0.353905
0.346778 0.745366 0.380098
-0.349687 -0.00152519 0.473088
-0.0909729 0.277625 -0.526485
-0.55164 -0.0785109 0.264245
0.463031 0.142406 -0.161365
-0.334201 -0.184088 0.292566
0.101572 0.25648 -0.490023
-0.370772 -0.279188 -0.248218
-0.154311 -0.536697 -0.49226
0.120499 0.121603 0.670425
-0.295876 0.82555 0.212989
-0.313195 0.183862 -0.419648
0.318265 -0.403121 -0.200179
-0.43061 -0.0879449 -0.00326784
-0.0425242 -0.785071 -0.200097
0.186823 0.888365 0.147346
0.000437384 -0.722252 -0.218158
-0.13388 -0.696932 0.273522
0.336555 -0.364312 0.180027
-0.407951 0.549644 0.450451
-0.0701576 0.783664 0.516952
-0.430672 -0.196111 0.196964
-0.0649246 -0.246643 0.467763
-0.0142898 0.12351 -0.687586
0.121389 -0.550078 -0.506813
0.269338 0.810669 -0.176411
-0.152769 0.891782 0.123764
0.233431 -0.504319 -0.258544
0.386328 0.766966 0.178892
0.00978132 0.91018 -0.0616977
-0.39899 0.269118 0.533691
0.328603 0.457843 0.587461
0.245093 -0.407988 -0.481481
0.0188066 0.861753 0.403911
-0.435477 0.156095 -0.203992
0.388785 -0.205846 0.0274341
-0.317718 0.717082 -0.260784
0.299657 0.616975 0.554284
0.292774 0.560659 -0.408803
-0.357426 -0.275483 -0.319819
0.403149 0.750256 0.0435093
0.527191 0.106146 0.122438
0.522682 0.595763 0.0128299
-0.537583 0.182518 0.0954826
-0.489654 0.426351 0.402216
0.540365 0.584874 0.226139
-0.533708 0.227088 0.294965
-0.275941 0.339405 -0.465545
