-0.716441 -0.229363 -0.0991377
0.41129 -0.138231 0.521132
-0.689098 0.128912 0.136004
-0.195805 -0.509981 0.474822
0.299373 0.551731 0.423462
0.500947 0.554509 -0.337001
0.152368 0.00249752 0.487605
-0.179751 0.606462 -0.607203
-0.271373 0.302039 0.441255
0.0295186 -0.0781551 0.651551
0.513367 -0.776569 -0.436941
0.627529 0.24856 -0.404503
0.237464 0.309124 0.611008
-0.780903 0.620003 -0.056425
0.502348 -0.542051 -0.606558
0.596019 0.28553 0.330062
-0.0562514 0.263995 0.506012
0.0432201 0.394294 0.506825
0.110943 -0.111535 1.07811
-0.523098 0.137391 -0.299205
0.770494 -0.589148 -0.0854812
-0.223318 -0.655082 -0.591192
-0.567474 0.609165 0.0192015
-0.346024 -0.26176 0.56351
0.60397 0.434607 0.318026
-0.521499 -0.234206 -0.301803
-0.32602 -0.512479 0.407665
0.541169 0.66695 -0.244835
-0.505182 -0.613061 0.208556
0.396165 0.288779 0.531963
0.428944 -0.0777469 -0.44056
0.142858 -0.33586 0.745731
0.398076 -0.741909 0.344635
-0.127895 -0.577923 0.693609
0.18632 -0.45717 0.626628
0.484406 0.513541 0.238657
-0.499263 -0.0821532 -0.34516
0.554798 0.495118 -0.196596
0.74373 -0.736061 -0.0447808
0.401279 0.636684 0.343021
0.712885 0.196524 -0.0931732
0.305904 -0.677341 0.652575
0.157496 0.0288108 -0.61285
0.753312 -0.692253 0.115309
0.00575446 -0.204399 -0.778529
-0.22437 0.30369 0.616502
0.701351 -0.221725 -0.198489
-0.208015 -0.652813 0.470471
0.164406 -0.600752 0.48421
-0.559683 -0.336138 0.064098
0.613129 0.777999 -0.313219
-0.432548 0.231546 0.507941
-0.564835 0.0912468 -0.163594
0.555389 0.0973472 0.386015
-0.540591 -0.728065 0.126399
-0.435718 -0.521998 0.309367
0.549015 -0.601731 0.0926879
-0.337306 -0.106679 0.568426
-0.139908 0.678167 -0.829538
0.443054 0.102042 -0.42326
0.712244 -0.234417 -0.0144881
-0.000385212 0.778009 -0.724934
0.326167 0.245912 -0.699818
0.00231554 -0.571835 -0.826159
0.117219 -0.774272 -0.661265
-0.164613 0.303197 -0.612252
-0.59578 -0.633212 -0.572669
-0.573092 0.0171684 -0.0378517
0.257238 -0.240375 -0.730515
-0.284814 -0.0239441 -0.720548
-0.31863 -0.382724 -0.539725
0.710953 -0.469545 0.00766216
-0.178823 -0.778293 -0.68432
-0.274688 0.410546 -0.566141
-0.139663 -0.102645 0.966067
0.603111 -0.102302 0.319759
-0.541804 -0.0113556 0.125094
-0.734399 -0.533724 -0.0614338
-0.675216 -0.693211 -0.446171
-0.421945 -0.470097 -0.452018
0.396872 0.11315 0.531277
-0.606714 -0.527352 -0.464665
0.662212 -0.03259 -0.331637
-0.397032 -0.775707 -0.524301
-0.413229 -0.0393966 -0.648743
0.679427 0.299086 0.156065
0.304473 0.11459 -0.546881
-0.158871 -0.0148307 0.634679
-0.0747479 -0.207448 1.08161
-0.467437 -0.314926 0.480186
-0.0107298 0.132691 1.13214
-0.702448 0.100479 -0.206626
0.570646 -0.532878 -0.0746784
-0.14382 0.244541 0.930432
0.635634 0.157214 0.261998
0.137627 0.305659 0.752708
0.483814 0.287939 -0.589243
0.74635 0.590463 0.133307
-0.343013 0.171099 0.395831
-0.53436 0.424679 0.146325
0.327086 0.428861 -0.699202
0.0320164 0.101377 0.507469
0.17278 -0.204868 -0.608767
-0.522476 -0.638842 -0.299635
0.559381 -0.396083 0.0517493
-0.344275 0.568561 -0.521646
-0.47149 -0.337912 -0.389472
0.426529 -0.344904 0.51036
0.610928 -0.776659 -0.323189
0.568433 0.743109 -0.020402
-0.48128 -0.774814 0.319148
-0.430669 0.487196 -0.441851
0.438495 -0.30189 -0.627749
-0.0644921 -0.43795 0.861884
0.0107652 0.262484 1.07455
-0.0309445 -0.778297 -0.69841
0.213082 -0.480772 -0.745889
0.324597 -0.261668 0.406686
-0.515132 0.0123004 -0.561567
0.163019 0.0102713 0.632811
0.0849785 0.0275981 0.894792
-0.430315 0.735691 -0.679012
0.559044 0.0484579 0.0505872
0.555331 0.33034 -0.194323
0.295238 0.330534 -0.552486
-0.56635 -0.241376 0.37627
-0.566911 0.268742 -0.152208
-0.712072 -0.143668 0.0199211
-0.239752 0.471274 -0.738313
0.0959534 -0.435736 0.500441
0.491416 0.691986 0.535911
0.674204 -0.698672 -0.43165
0.300965 -0.435431 0.422236
0.00706433 -0.0357693 1.15123
0.340539 -0.231854 -0.522165
0.262957 0.533037 0.618175
0.0829085 0.779454 0.582238
0.361266 0.0960917 -0.68006
-0.314271 -0.53679 -0.542786
0.333443 -0.607604 0.400369
-0.432566 -0.210059 -0.439876
0.551931 0.613331 0.0819735
-0.112491 -0.67834 -0.831875
0.502838 0.775062 0.269377
0.600306 -0.295336 0.324105
0.601231 0.511302 -0.446862
0.610113 -0.488921 0.30716
0.747883 0.730619 -0.0968955
-0.339264 0.776328 0.514579
-0.568917 -0.6372 -0.140298
0.548988 -0.61302 -0.21897
0.521739 -0.488032 0.424182
-0.564943 -0.486915 -0.16395
-0.274847 0.291624 -0.724575
0.42518 -0.370001 0.318387
-0.530836 0.628182 -0.280211
-0.236721 -0.383926 -0.739569
0.334738 -0.0532398 -0.695191
-0.176656 0.0680281 -0.757193
0.147855 0.356309 -0.61561
0.748781 0.682937 -0.264109
-0.693232 0.730418 0.224193
-0.709739 0.498602 -0.160016
0.710013 0.522816 -0.167058
0.145973 0.778283 -0.688422
0.683228 -0.424584 -0.271029
0.271917 -0.349283 -0.565933
0.127172 -0.116042 0.932354
0.0746707 0.514641 -0.773948
0.007723 0.643632 -0.635471
-0.513538 0.221661 -0.563317
0.705041 0.605712 -0.390434
-0.248577 -0.574665 -0.787536
0.373658 0.448946 0.545988
-0.431107 0.651189 -0.441474
0.13878 0.178355 0.9791
-0.129742 -0.287249 0.953094
-0.71626 0.14473 -0.0349797
0.544134 -0.752918 0.419363
-0.504007 -0.424394 0.210626
0.712821 -0.0874204 -0.100194
0.727 0.743219 0.0527877
0.217729 -0.122754 0.617642
-0.570913 -0.149336 -0.00710154
-0.40339 -0.741078 0.555662
-0.582623 0.114153 -0.481056
-0.418269 0.0706865 -0.455969
0.648562 0.015616 0.235785
0.0860539 0.370952 -0.773324
0.114026 0.187281 -0.769373
0.304371 -0.661581 -0.547211
0.0587357 0.483013 -0.632136
-0.454359 0.204032 -0.41356
-0.330005 0.627749 0.405514
-0.285884 -0.776099 0.481607
-0.0873502 0.189662 0.803139
0.330094 0.595055 -0.529844
0.48382 -0.171618 -0.589123
0.338644 -0.426361 -0.69313
0.458635 -0.581385 0.276882
-0.75486 0.714142 -0.177636
0.408763 -0.36332 -0.462411
-0.506209 -0.493404 -0.333035
-0.669736 0.543405 0.255086
-0.094292 0.249127 0.657701
0.216204 0.0702739 -0.744912
-0.380989 -0.0743109 -0.492023
-0.0352001 0.189305 -0.778522
-0.717616 0.536027 0.0904633
-0.682774 -0.0672122 -0.283029
-0.000149069 0.0684204 0.652702
-0.582972 0.769236 -0.172957
-0.591953 0.691846 -0.568333
0.378007 0.766349 -0.512156
-0.0372468 -0.404425 -0.634803
-0.429736 0.262819 0.316336
0.504532 0.778186 -0.431752
-0.624933 -0.106791 -0.415232
-0.656566 0.768023 -0.323287
0.190249 0.732418 0.475148
-0.201548 0.529417 0.472592
-0.440775 0.0146499 0.501612
-0.00437295 -0.587916 0.50882
0.483167 0.692841 -0.667242
0.552811 0.2688 0.0787609
-0.502344 0.770084 -0.372766
-0.15801 -0.097707 -0.761308
-0.620359 -0.297378 -0.423314
-0.713828 -0.744161 0.122108
0.603151 0.775984 -0.16827
0.42164 0.566362 -0.695578
0.513837 -0.0495202 0.432963
0.69201 -0.539308 0.195323
0.598541 0.572037 0.409931
0.561313 -0.108779 -0.167031
-0.0715106 -0.419231 0.505
0.606158 0.698505 -0.537476
-0.632435 0.423515 -0.401357
-0.436234 -0.583316 0.571986
0.152292 0.636193 0.705152
0.562545 0.441668 0.0328025
-0.343423 -0.770723 -0.667203
0.284659 -0.00386341 0.431844
0.0327054 0.208106 -0.634789
0.656328 0.116987 -0.344332
-0.528949 -0.155263 0.158998
0.616794 -0.605618 -0.534793
0.336478 0.325253 0.398632
0.0215489 -0.307936 1.04152
0.700055 0.0958072 -0.202814
-0.50012 0.338096 -0.344793
-0.508097 0.604523 -0.655402
0.679914 -0.681435 0.314255
-0.665872 0.59857 -0.467125
-0.676488 -0.492706 -0.299524
0.694739 0.148372 0.101248
0.387105 0.78074 0.464936
-0.458771 0.403772 0.280607
0.550721 -0.0660491 -0.518175
0.41477 -0.605026 -0.456536
0.713245 0.0549535 -0.0420611
-0.607615 -0.771776 0.247343
-0.300829 0.667676 -0.78575
0.555079 -0.437519 -0.196878
0.610784 -0.610868 0.420348
-0.683197 -0.343522 -0.281105
0.231911 0.495727 -0.586108
0.682115 0.433383 -0.275006
-0.459117 0.396811 0.486567
0.486176 -0.268077 0.236039
-0.51827 -0.779283 -0.444543
-0.304745 0.135659 -0.548787
0.0897755 0.235567 0.501263
-0.419366 0.573285 0.576427
0.568092 -0.104617 -0.00800314
-0.181385 -0.305883 0.629144
0.01989 0.640617 -0.846019
0.509396 0.10789 0.193725
-0.338092 0.44724 0.399512
-0.0811287 0.582637 0.706066
-0.714387 0.412178 -0.00256894
0.0687261 -0.457832 0.807235
0.395932 -0.564868 -0.709476
0.527415 0.00222615 -0.282196
-0.0129167 0.349225 -0.635705
-0.368313 0.553894 -0.723151
-0.0235235 -0.241888 -0.635706
-0.437447 0.0914452 0.307372
-0.47704 -0.649162 -0.686075
-0.431869 0.6707 0.313974
-0.253804 0.160931 0.606037
-0.562912 -0.176871 -0.175694
0.228639 -0.15439 0.460634
0.450027 0.246015 0.288444
-0.607388 -0.712455 0.399228
0.253419 0.215497 0.449326
-0.638474 -0.0933182 0.26263
-0.598342 0.582007 0.417416
-0.578065 -0.778336 -0.303321
0.515389 -0.0420339 0.181432
0.150031 0.641263 -0.615022
0.617422 -0.774948 -0.128299
0.509344 -0.512292 -0.320857
0.506102 0.271793 0.441006
-0.621624 0.0667224 0.293449
0.172145 0.187699 -0.608512
-0.571189 -0.459092 -0.00930848
0.694757 -0.337866 0.101166
0.0107817 0.0355843 -0.635345
-0.101649 0.123525 -0.626716
0.0217281 0.375767 0.978756
-0.359995 0.152571 -0.68248
-0.0741289 0.763217 0.509843
-0.632062 0.222506 0.27511
0.13796 0.302338 0.895799
-0.543829 0.132122 0.119083
0.101192 -0.206437 0.808738
0.133877 -0.591356 0.702357
0.591324 0.779338 0.140966
0.708126 0.709653 0.220394
-0.184314 -0.368969 -0.605667
0.509796 0.221667 -0.320876
0.431214 -0.725033 -0.680718
-0.0911044 -0.768618 0.523469
-0.166649 -0.512188 -0.611288
0.571181 0.364642 -0.49243
0.235816 -0.779909 0.542075
-0.11357 0.450578 -0.624762
-0.543115 0.775584 0.223909
-0.0435843 -0.200676 0.736549
-0.655942 0.778997 -0.0485631
0.217727 0.758048 0.624338
0.066542 -0.725312 -0.813595
0.56578 -0.722055 0.00987221
-0.297969 -0.214966 -0.714718
-0.534929 0.27857 0.144832
-0.535088 0.699933 0.492187
-0.0487485 -0.39163 -0.777079
-0.251999 0.734169 0.642222
-0.0740491 -0.0724755 0.504242
-0.202325 -0.360507 0.472499
0.509654 0.386824 -0.321086
-0.57021 0.558544 -0.124214
-0.608233 -0.775598 -0.143479
-0.53243 0.468 -0.276222
-0.676698 0.336786 0.174777
-0.265367 -0.637836 0.675245
-0.641108 -0.274232 0.257581
0.549699 -0.779466 0.276713
-0.715586 0.294337 -0.104051
0.442306 -0.107896 0.29756
-0.540217 0.435125 -0.53473
-0.570641 0.293138 -0.00317265
0.0615233 -0.134451 0.505247
0.0114179 0.465228 0.838284
-0.54154 -0.376638 -0.252444
-0.479182 0.781574 -0.514677
0.315363 -0.407697 0.577773
-0.0453121 0.00938529 -0.777543
0.0939514 -0.344712 -0.627672
-0.196418 0.024863 0.474516
-0.419509 -0.649559 -0.454402
0.0589622 0.149795 0.825442
-0.372062 0.299865 -0.499526
0.202174 -0.31622 0.471052
0.679991 0.559131 0.263924
0.432199 0.640208 -0.436964
0.102034 -0.621668 -0.62626
-0.313496 -0.261015 0.416227
0.512129 -0.403836 0.188776
-0.43173 -0.195441 -0.635076
-0.533739 -0.367909 -0.541942
-0.571054 0.464686 -0.00574802
-0.706997 0.548505 -0.323171
-0.355961 -0.00207567 0.386265
0.557455 0.153959 -0.185599
0.268534 -0.0603372 -0.568079
0.268885 -0.776597 -0.639367
-0.165932 -0.204192 -0.61159
0.710375 0.380543 0.00655526
-0.448984 0.336368 -0.621709
-0.299861 0.596523 0.653806
0.518484 0.375595 0.175467
-0.320204 -0.197343 -0.538596
-0.143199 -0.306009 0.804924
0.205163 0.37361 0.470781
-0.000910577 -0.50445 0.686833
-0.203102 -0.454882 0.622978
0.0570165 -0.775126 0.541516
-0.598098 0.745557 0.366384
-0.744725 -0.693754 -0.281125
0.363032 0.449394 -0.504877
0.677573 0.445439 0.161955
0.51024 -0.15523 -0.319253
0.0600432 -0.108294 -0.632478
0.479591 0.532247 0.486506
-0.155184 0.775548 -0.724883
-0.128123 -0.271223 -0.767797
-0.765395 -0.596545 0.0754948
0.0977097 -0.216009 0.645025
-0.778841 -0.655169 -0.137394
-0.370072 -0.544125 -0.710574
-0.565489 -0.601462 0.0334661
0.312602 -0.00624825 0.579611
0.682588 0.267917 -0.273549
-0.0540472 -0.74421 0.669
0.245836 -0.265222 0.608078
0.513893 -0.311317 -0.31131
-0.114961 0.407908 0.497187
0.127292 0.183875 0.640489
-0.727333 -0.749841 -0.0232393
-0.120444 0.438218 0.705577
-0.192569 -0.163051 0.626646
0.567307 -0.259712 0.00107102
0.698233 -0.0630227 0.0870015
0.531471 -0.412945 -0.541178
-0.610862 -0.417081 0.311875
0.0458521 -0.293943 0.506859
-0.110596 -0.0660387 -0.62538
0.269366 0.159562 0.598808
-0.716132 -0.00639797 -0.0246962
0.70958 0.337858 -0.138352
0.0701137 -0.389266 0.933073
-0.483051 -0.478971 0.465504
-0.389308 -0.655184 0.357679
-0.573792 -0.277874 -0.0732526
0.0119945 0.71389 0.697704
0.730761 -0.595056 -0.319067
0.495458 0.117347 -0.578663
0.663955 -0.193472 0.199222
-0.520359 0.608648 0.178868
0.570023 0.177614 -0.0394127
-0.10525 -0.21486 0.4994
-0.429746 -0.325341 0.316336
0.712021 -0.361037 -0.116454
-0.252174 -0.132917 0.45105
0.427476 0.397897 0.31519
-0.0903903 0.540854 -0.798907
0.305045 0.664517 -0.780662
-0.0788743 -0.651388 -0.630903
-0.698706 -0.311353 0.0972996
-0.0300396 -0.0891337 0.853248
0.0993167 -0.390887 -0.771816
-0.477631 -0.155803 0.470853
-0.531415 0.114715 0.417456
0.0170403 0.588186 0.50838
0.255747 -0.517214 -0.574564
0.104202 -0.0981781 -0.771007
0.570133 0.586302 -0.0841576
0.148512 0.525326 0.48896
-0.367907 -0.356588 -0.678143
-0.594807 0.776663 0.0877437
-0.245044 0.472387 0.609101
-0.53908 -0.156418 -0.535674
-0.258037 -0.0347203 -0.575069
0.658732 -0.245587 -0.340494
0.39372 -0.774811 0.490666
0.582048 -0.221629 -0.477398
-0.664972 -0.519031 0.207745
-0.694576 -0.0353058 0.113734
-0.654514 -0.579905 0.342065
0.300312 -0.663641 -0.783107
-0.56119 -0.0638608 0.38245
-0.199429 0.172716 0.473472
-0.580334 0.351005 0.357754
0.516424 -0.234217 0.4302
0.167168 -0.610544 -0.824055
0.619467 -0.454242 -0.419389
0.361282 0.145506 0.378853
-0.101379 0.388486 0.89685
0.0784764 0.502376 0.646349
-0.650932 0.0549517 -0.364283
0.29602 0.777512 -0.628836
0.120448 0.0679264 1.07457
-0.485289 -0.527625 -0.605331
-0.116804 0.0600292 0.923047
0.501963 0.509573 -0.570857
0.426529 -0.557916 0.561738
-0.615286 0.256389 -0.431067
-0.194718 0.677839 0.475254
-0.698035 0.366941 -0.22734
-0.71713 -0.37804 -0.0437295
-0.35997 -0.444272 0.555717
0.619757 -0.779028 0.140446
-0.291207 0.780434 -0.64665
-0.128583 0.133827 1.04953
0.245989 0.535863 -0.755164
-0.431078 -0.113554 0.314856
0.423877 0.322768 -0.446089
0.10492 -0.736669 0.674873
0.38684 0.635243 0.616758
0.738872 -0.724736 -0.196724
-0.740826 0.7279 0.0693578
0.168116 0.654816 -0.825737
0.642609 0.706362 0.354071
0.771416 0.593306 -0.0121486
-0.134866 0.33358 -0.766698
-0.567398 0.413401 -0.148356
-0.676797 0.210165 -0.299838
0.565401 -0.26516 -0.144205
