0.126954 -0.840187 0.244178
-0.186373 0.757533 -0.20427
0.224529 -0.00582487 -0.210191
0.443367 0.918956 -0.0697667
0.227388 -0.517975 -0.126838
-0.216689 0.48945 0.368961
-0.370553 0.664544 -0.135669
-0.266955 -0.982884 0.222716
0.174125 0.122447 -0.389417
-0.457111 -0.300668 -0.158905
-0.318333 0.0351977 -0.456299
-0.101774 -0.308603 -0.093574
0.286828 0.911107 0.0276132
-0.372219 -0.887191 -0.211278
-0.0709133 0.163675 0.495386
0.372181 0.228168 -0.340461
0.0578482 -0.719575 0.238952
-0.176044 0.177788 -0.348979
0.504333 0.507372 -0.0826482
-0.659545 0.726997 -0.116433
-0.161147 -0.0910087 0.345961
-0.160655 -0.290035 -0.217739
0.00201327 -0.033025 -0.338048
-0.0521167 -0.0954848 0.00493316
-0.498443 0.252006 -0.0247533
-0.476334 0.605299 -0.273134
0.170146 -0.574196 -0.11531
0.0770226 -0.341107 -0.117052
-0.448526 -0.885618 -0.236311
-0.164985 -0.957145 -0.0534862
-0.467357 -0.148188 -0.339838
-0.302916 -0.745576 0.171941
-0.397516 -0.959604 -0.222001
-0.521014 -0.173783 -0.393545
0.149092 0.54661 0.540258
0.427101 0.584772 0.401256
0.0593134 -0.559845 0.310143
-0.625075 -0.637354 -0.00816657
0.0353473 -0.94457 0.290136
0.586085 0.225618 0.174467
-0.113379 -0.0272404 0.147207
0.512662 0.428727 -0.281129
-0.451792 -0.226178 -0.345153
-0.466911 0.359797 -0.168713
0.0256656 0.424078 0.481046
0.0870345 0.521855 -0.376191
0.122519 -0.815206 0.315147
-0.528956 0.0539238 -0.216468
-0.119419 0.418898 0.42467
-0.00925412 -0.557408 0.36935
0.361654 -0.590019 0.0706686
-0.0132087 0.309496 0.696021
0.2247 -0.0703904 0.402375
-0.405076 -0.920409 0.124832
-0.291121 -0.647645 0.165204
0.321609 0.842837 0.259958
0.292226 -0.333474 0.322611
-0.197406 0.73334 -0.00267482
-0.213089 -0.134967 0.295487
0.156516 -0.0961237 -0.0946708
-0.00822445 -0.635112 -0.4293
-0.309502 0.0543317 -0.309646
-0.356443 0.50151 0.0729745
-0.0808332 -0.873443 -0.472934
-0.0579122 -0.775754 0.24878
-0.123914 0.665136 -0.323322
0.0272108 0.824127 0.267975
0.0195637 0.807248 0.08286
0.584033 0.214237 -0.0179465
-0.133888 -0.321781 0.0444405
-0.56486 0.456389 -0.0662046
-0.0910208 0.234748 0.521929
-0.458803 -0.867191 0.0183202
-0.510506 0.398013 -0.121503
-0.397829 -0.271422 -0.0179716
0.0202407 -0.485765 -0.457713
-0.411145 -0.856183 0.00423546
-0.403349 0.0986212 -0.240545
0.0631038 -0.410023 -0.369977
0.464855 0.466401 0.413836
0.155949 -0.556524 -0.194443
-0.571204 0.585766 -0.143678
-0.304782 0.170433 0.194473
-0.330243 -0.893867 -0.0598715
-0.429042 0.219202 -0.171072
0.353013 0.808683 0.232203
-0.14472 -0.33752 0.195201
0.418261 0.0155446 -0.0190924
-0.195122 0.666641 -0.18166
0.553973 0.356963 -0.110566
0.149825 0.755084 -0.264321
-0.348203 0.428095 -0.328159
0.319868 -0.177874 0.192368
0.034479 -0.730374 0.330379
-0.178195 0.549403 0.476301
0.365925 0.8922 -0.0445759
0.166217 0.764874 -0.199887
-0.523917 -0.795949 -0.183993
0.611109 0.636467 0.151958
-0.439954 -0.460978 0.177094
-0.027364 0.536418 -0.409783
-0.169468 -0.954866 -0.250876
-0.163691 -0.639192 0.215153
0.171672 -0.892824 -0.331504
-0.317943 -0.425043 -0.569617
0.004382 -0.0789893 0.480668
0.382713 1.01073 0.164038
0.0176146 -0.930333 -0.0497367
0.35168 0.73398 -0.19368
0.335938 -0.819508 -0.198284
-0.0701844 -0.924844 -0.0126401
0.108441 -0.280234 0.369388
-0.245481 0.621915 0.385715
0.130673 -0.690324 -0.27053
-0.0508269 -0.116548 -0.179114
-0.0539746 -0.940532 0.27993
0.345335 0.182939 0.6005
0.360802 -0.0961095 0.322365
-0.144343 0.540607 -0.417438
-0.186677 -0.798633 0.295876
0.236923 -0.293909 -0.0877304
-0.00134964 -0.196898 0.264418
0.634862 0.687111 0.0988467
-0.180447 -0.0907499 -0.044587
-0.21394 0.758419 0.27747
-0.104539 0.149803 -0.338358
-0.157211 0.0185744 0.475867
-0.0474007 0.828147 -0.158575
-0.0826835 0.0639203 0.497497
-0.252298 0.20131 0.35373
-0.335134 -0.395771 -0.453633
-0.235349 0.332168 0.365921
0.31363 0.797801 -0.313654
-0.434517 -0.318984 -0.467859
0.196023 -0.0693529 -0.257756
0.528704 0.378092 0.357113
-0.0975918 0.637698 -0.371715
0.276666 -0.216151 0.08585
-0.351964 0.145956 -0.29172
-0.498752 -0.123405 -0.416466
0.0343838 -0.260929 -0.0978616
-0.352553 -0.411805 0.121532
0.636737 0.635411 0.0257375
-0.109813 0.876085 -0.13486
0.357491 0.725358 -0.186754
0.156331 0.815282 0.342241
-0.289441 0.14576 0.0211553
0.480024 0.885637 0.144623
0.0324932 -0.429792 0.424665
0.626905 0.691918 -0.0785193
-0.506383 0.390905 0.0960332
-0.380448 0.552786 0.0583941
0.463876 0.541463 0.139037
-0.388153 0.00446688 -0.357837
-0.476369 0.173919 -0.316819
-0.117494 -0.591183 0.243111
0.389398 0.466198 -0.253096
-0.487434 -0.0328829 -0.42178
-0.287512 0.115541 0.182935
0.487975 0.768053 -0.246986
-0.083194 -0.0123525 0.372144
-0.304635 0.770975 0.116115
-0.311513 -0.372569 -0.473779
0.352205 -0.866575 -0.022475
0.269953 -0.60403 0.273053
0.27751 0.57288 -0.26321
-0.0532449 -0.135664 0.0993969
-0.106907 -0.894905 0.0862621
-0.400027 -0.4185 0.0910483
0.350364 0.238198 -0.395946
0.0521726 -0.252858 0.236404
-0.252815 0.358196 0.303615
-0.0941306 0.0996507 -0.322005
0.107664 -0.538172 0.412882
-0.497362 0.227281 -0.000931471
0.283321 0.714071 -0.342126
0.0805108 -0.650854 -0.193801
-0.316257 0.0933022 -0.290591
0.0715794 -0.934987 -0.264002
-0.488052 0.742372 -0.0765606
-0.274496 -0.0775287 0.11072
-0.345057 -0.983403 -0.130304
-0.012618 0.0612774 0.499707
0.122417 0.883251 0.035553
-0.504542 0.526831 -0.202611
-0.0639071 -0.343921 0.234009
0.217299 -0.00357565 -0.221308
0.113274 0.242713 0.558519
0.19913 0.858014 -0.149669
0.062226 0.827515 0.24513
0.222298 0.036464 0.494051
-0.51199 -0.151946 -0.44324
0.319384 0.580286 0.480991
0.126776 0.417207 0.637036
-0.339199 -0.242783 -0.18509
0.187731 -0.664616 0.263673
-0.324674 0.536951 0.221154
0.162827 -0.333092 0.396533
-0.0977914 -0.752842 -0.500838
0.399868 0.355997 0.447919
0.471943 0.0367786 0.000986503
0.230547 0.668955 0.392974
-0.344637 0.163028 0.306961
0.176867 -0.336704 -0.020663
0.0971401 0.681326 0.431903
0.340704 -0.260152 0.102091
0.00739748 0.653279 -0.416527
-0.0632893 -0.466548 -0.504016
0.306559 -0.452194 0.332403
0.468724 0.71441 -0.131439
0.631569 0.374398 0.0757289
-0.514098 0.736226 -0.173092
0.0926294 0.2188 0.657336
0.276471 -0.336616 0.353876
0.141689 0.00449069 0.54772
0.606609 0.264198 0.0857946
0.267398 0.824133 -0.26183
0.472753 0.515178 -0.286289
0.0394965 0.858004 -0.200641
-0.389047 0.241975 0.27232
0.484056 0.257967 0.281263
-0.322076 0.551081 -0.293591
0.373334 -0.0107702 -0.155197
-0.403294 0.375242 0.209379
-0.521435 -0.345061 -0.0954728
0.23651 -0.215369 0.214824
0.486409 0.0643436 0.387887
0.701142 0.641488 -0.181078
0.312264 -0.124433 0.0761213
0.0862632 0.90069 -0.0315794
-0.438154 0.180806 -0.124034
-0.436604 -0.030839 -0.328491
0.168183 -0.437657 -0.240594
-0.617516 -0.272528 -0.389892
-0.520383 -0.260735 -0.2402
0.308575 0.699745 0.23912
0.345669 0.227966 0.498523
0.485216 0.120082 -0.189564
-0.470448 0.464014 0.0515431
-0.582475 -0.592167 -0.0464726
-0.268174 0.327445 -0.29404
0.40501 -0.540756 0.237449
0.44682 0.317218 -0.082702
-0.100716 0.437123 0.416021
0.0418865 0.551688 -0.365652
-0.150697 -0.262442 -0.242295
0.222852 0.234573 -0.486187
0.599704 1.03011 0.141027
0.447899 0.979508 0.050242
0.240714 -0.218169 -0.00144766
-0.50406 -0.675299 -0.187119
0.0111334 0.628592 0.540064
-0.340692 -0.559993 -0.463948
-0.45568 0.282621 0.105763
0.0102947 0.176189 -0.423298
-0.308077 0.460578 0.279278
0.462337 0.248295 -0.195992
0.580585 0.735172 0.0926018
0.127071 0.12311 0.601798
0.352425 0.162654 0.457877
-0.0105986 -0.818212 -0.288449
-0.314347 -0.00211165 0.029104
0.437336 -0.436852 0.0268911
-0.0620198 -0.336046 -0.394699
0.231832 -0.833599 0.0414585
-0.267752 0.0118453 -0.32928
0.27947 0.414348 0.408053
0.0759933 -0.0716621 -0.251383
-0.58845 -0.38315 -0.318904
-0.0465746 -0.235573 0.0799157
-0.00547765 -0.347178 0.291447
-0.114194 -0.221061 -0.187677
0.576291 0.418646 -0.132921
0.360153 -0.874966 -0.0266501
-0.529162 -0.560245 -0.356018
0.195768 -0.800171 0.146682
-0.278054 -0.358389 0.0305417
-0.0846331 -0.995818 -0.218516
0.597696 0.828718 0.00857321
-0.0678684 -0.595173 -0.462738
0.118567 -0.182862 0.284109
0.0132277 -0.817164 -0.34961
-0.354227 0.0331422 -0.228762
0.0176435 -0.412711 -0.255979
-0.0613522 0.683037 0.466577
-0.197766 0.123222 0.385749
0.569272 0.195455 0.0979388
-0.342494 -0.244229 -0.347731
-0.38183 0.11328 -0.37277
0.222075 0.346313 0.616251
0.54691 0.331645 0.452271
-0.281715 0.0700225 -0.201847
-0.0623059 -0.901013 0.264563
-0.480727 0.555247 0.105078
0.53094 0.757142 -0.135877
-0.303793 0.0457685 -0.0182066
-0.419262 -0.654779 -0.351766
0.456326 0.187015 -0.290015
0.317057 0.752559 0.323568
0.551765 0.438076 0.297283
0.461191 0.111636 0.256689
-0.442233 -0.584796 0.202692
-0.261614 -0.925775 -0.180987
0.0169604 -0.28627 -0.137271
0.347203 0.397052 -0.393382
-0.267877 0.378609 -0.306316
0.283974 -0.957653 -0.147629
0.311272 -0.578589 0.111608
-0.245937 -0.496984 -0.490057
0.069265 -0.959807 -0.0513203
0.358754 -0.610092 -0.0149266
-0.00191527 -0.103506 0.153165
0.0779493 -0.642722 -0.27742
0.635773 0.861449 -0.0750698
-0.233824 -0.863141 0.253677
0.489853 0.624604 -0.186245
0.116118 0.0727791 0.580527
-0.488111 -0.742101 -0.184084
-0.505507 0.463293 -0.216719
0.369436 0.0632946 -0.217033
0.302278 -0.647417 -0.122763
0.286011 0.60034 0.389103
0.203313 0.348622 0.48872
0.555924 0.841156 0.110445
0.119922 0.366782 -0.494769
0.344181 0.0187378 0.378486
-0.064969 -0.472408 0.315963
-0.0608314 0.833598 0.162413
0.266865 0.115535 0.580893
-0.330525 0.581579 -0.187821
-0.192948 0.576084 -0.208941
-0.115962 0.831075 0.106727
-0.319619 -0.698196 -0.475264
-0.137508 0.743248 -0.243493
-0.00531659 -0.502676 -0.419262
-0.0390407 0.890342 -0.135386
0.447572 -0.0162472 -0.00702043
0.583693 0.413054 0.256884
0.314629 -0.369073 -0.0252222
-0.438482 -0.784095 -0.00347951
0.545853 0.118669 -0.0818168
-0.245881 -0.855891 -0.434613
0.479685 0.0211606 0.283127
0.00550093 -0.668194 0.304634
0.150307 0.481712 -0.483405
0.567931 0.576837 -0.0229802
0.469256 0.616294 -0.251433
-0.0891043 0.766144 0.281633
-0.0652703 0.331208 -0.399715
-0.415797 -0.691963 -0.387862
-0.243729 -0.355942 0.0968453
-0.302549 -0.329928 -0.40127
-0.444153 0.660758 -0.0247735
0.222176 0.929639 0.01974
0.136862 0.101727 0.588211
0.0768858 -0.994755 0.186794
0.246242 -0.792273 -0.182247
-0.210201 -0.915061 -0.337194
0.339076 0.496394 0.457871
0.235085 -0.352006 0.403018
-0.618148 -0.624482 -0.103584
0.524976 0.941362 0.11195
0.591205 0.0495065 0.230867
0.179177 0.567055 0.529164
0.393554 0.67537 0.184529
-0.117148 -0.30691 -0.332985
0.317352 0.150895 0.606398
0.275409 -0.8894 0.125874
0.437374 -0.00318735 0.123233
-0.109534 -0.723055 0.218607
0.158688 0.837591 0.15787
-0.422599 -0.69768 0.186882
0.0763037 -0.152774 0.350841
-0.30411 0.585764 0.242491
-0.100166 -0.304655 -0.482858
-0.141657 -0.126947 0.163978
-0.379899 -0.453196 0.151963
-0.433422 -0.323085 0.00360373
0.0689309 -0.961164 -0.197838
-0.355499 0.147249 -0.0868469
0.309931 0.660731 0.462753
-0.223126 -0.454227 0.182202
-0.0593745 -0.432804 0.269218
-0.210866 0.110865 -0.174861
-0.0327206 0.473213 -0.448401
-0.228767 0.77724 0.200505
-0.335827 0.089697 -0.132566
0.0298829 0.770607 0.494528
-0.362621 0.111162 0.322529
0.418161 0.112771 -0.300047
0.0549844 -0.0851383 0.461683
-0.391803 0.740237 -0.00906936
0.083905 -0.68062 -0.313805
0.398567 -0.48711 -0.0118355
0.265094 -0.096191 0.308886
0.416635 0.834109 0.0679959
0.551435 0.468615 -0.204709
0.261301 0.48141 -0.449219
0.285205 0.871185 0.116016
-0.516801 -0.358963 -0.165431
0.36583 0.0445798 0.539757
0.014744 0.189849 0.614632
-0.356375 -0.724959 -0.353189
0.0629062 0.284342 -0.470086
0.492596 0.286735 -0.324235
0.0806748 -0.918308 0.345123
-0.222595 0.708559 0.264184
-0.104852 0.391655 -0.3757
0.599692 0.499899 0.170034
-0.226413 0.289745 -0.368561
-0.297174 0.693458 0.0695532
0.159554 -0.924584 0.0295182
-0.462285 -0.352837 -0.0246705
-0.24503 -0.269747 -0.0115449
0.617065 0.435376 0.250525
0.343337 -0.330488 0.281312
-0.579729 0.435866 0.0100839
-0.423255 -0.270012 -0.310977
-0.134892 0.281996 0.442246
-0.00620755 -0.938052 -0.127969
0.284357 -0.476444 0.359143
-0.0973582 -0.815822 -0.360051
0.510634 0.940034 -0.111179
0.219608 -0.457399 -0.0323176
-0.161837 0.425099 0.523499
-0.286729 -0.403202 0.208763
-0.455413 -0.702805 0.119699
-0.515467 -0.74451 -0.242058
0.551891 0.0256352 0.243734
-0.578651 -0.247532 -0.495147
0.00827671 -0.144311 -0.0533276
-0.119907 0.379457 -0.355663
-0.3033 -0.21753 -0.163064
0.0239878 -0.595055 -0.495774
0.151291 0.540209 0.533453
0.291128 -0.127502 -0.0129927
0.25718 0.576353 -0.43408
-0.0530875 0.887951 0.0166553
0.0854863 -0.00673974 -0.259397
0.0785997 0.648519 0.500111
-0.279875 0.233281 -0.343202
0.249336 -0.497613 0.373971
-0.592444 0.586254 0.00381077
-0.608883 -0.306753 -0.456568
0.11588 0.630041 -0.325963
-0.209142 -0.988154 0.198994
-0.315337 0.698463 0.0300651
-0.262268 0.695558 -0.129632
0.157573 -0.1874 0.313035
0.337436 -0.341798 0.260355
-0.255651 -0.985231 0.0420453
0.682097 0.608793 0.124851
0.136497 -0.908326 -0.140048
0.560285 0.202277 0.380662
-0.423687 -0.497032 -0.472632
0.271736 -0.675672 0.0123995
-0.269311 0.532512 -0.194664
0.623059 0.977307 -0.132515
-0.336531 -0.99586 0.00274488
-0.522671 -0.398849 -0.415064
0.172154 -0.608299 0.28213
0.0182931 -0.354736 0.164634
0.662544 0.958427 0.0673495
-0.558756 -0.389651 -0.331574
-0.331858 0.416866 0.247663
-0.549228 0.551633 0.105757
-0.557058 -0.546543 -0.402352
-0.0582224 -0.30557 -0.0578167
0.597516 0.868259 -0.154353
-0.126602 -0.0128373 -0.251497
-0.481039 -0.421358 -0.418326
-0.335126 -0.775195 -0.483182
-0.14485 0.78722 0.0530419
0.124717 -0.987647 -0.0386344
-0.355196 -0.867527 0.0829644
0.436803 -0.0214185 -0.121933
-0.594194 -0.467313 -0.23875
-0.00822442 0.827011 -0.308226
-0.596996 0.755682 -0.0596564
0.356314 0.622527 -0.407065
0.495887 0.684844 0.303677
-0.329899 0.260645 0.108496
0.331382 -0.257158 -0.0136298
0.163415 0.821166 -0.0276732
-0.27475 0.0428544 0.269322
-0.534108 -0.216924 -0.267716
-0.102529 0.296164 -0.364005
0.256 0.0993796 -0.270014
0.0139936 -0.982254 0.162874
0.218897 0.392765 -0.445899
-0.016104 0.209829 -0.462309
0.0382469 0.599497 0.583225
-0.435495 -0.598787 0.0810552
-0.129698 -0.642873 -0.535564
-0.526207 0.404282 -0.204224
0.260325 -0.542972 0.342251
0.138843 -0.752188 -0.200117
0.198886 0.176348 0.587727
0.463593 0.637513 0.322035
0.0637734 0.104935 -0.404014
