0.36798 -0.925183 -0.165753
0.0442657 0.165006 -0.215101
-0.0284821 -0.604198 -0.437505
-0.409281 -0.000683916 -0.103056
0.0495333 0.0953113 -0.239537
0.401029 -0.588587 0.248797
0.107968 -0.454666 0.0220468
0.453157 -0.60701 -0.272046
0.21576 0.195832 0.110501
0.413767 0.129087 0.211762
0.330198 0.26423 0.0829745
-0.511578 0.243704 -0.00990271
0.36649 -0.309769 0.232753
0.359586 -0.242482 0.262619
0.197421 -1.12326 -0.346966
-0.320817 -0.869442 -0.0236195
0.133091 -0.127751 -0.039463
0.332485 -0.590966 0.258498
0.154921 0.399125 0.0119273
0.0527711 0.251997 -0.169112
0.51229 -0.161861 0.150654
0.589731 -0.439095 0.17291
0.425196 -0.0582837 0.379638
-0.0904859 -0.259578 -0.0453037
-0.165922 0.459132 -0.122393
-0.190429 0.262685 -0.181666
-0.335755 -0.981794 -0.130819
0.474849 0.00375486 -0.119751
0.401046 -0.871604 -0.134996
-0.439904 0.0228627 0.0862957
0.309905 -0.121818 0.410329
0.516165 -0.433155 0.282885
0.0629871 0.736299 0.0592065
-0.0818101 0.243798 -0.143817
-0.317929 -0.950541 -0.0732196
0.305694 -0.0266988 0.400631
-0.419959 0.144823 0.0833758
0.411078 -0.825892 0.0884423
-0.243405 0.442994 -0.118744
-0.255409 0.598245 -0.0916782
0.471832 0.0442178 -0.100413
-0.423451 -0.278677 -0.0190499
0.0345834 -0.623422 0.0370231
0.10342 0.591446 0.0921065
-0.142693 0.577524 -0.0464387
0.176247 -0.340685 -0.00725348
0.255199 0.26047 0.0128379
0.604317 -0.235439 0.290382
-0.281397 0.21324 -0.0934201
0.135381 0.0516269 -0.263973
-0.178974 0.0123484 -0.0493707
-0.209872 0.0816213 -0.227892
0.327391 -0.014802 0.411398
0.493601 -0.111729 0.342355
-0.0978729 0.723935 0.124962
0.473748 -0.0227432 -0.134407
-0.0433225 -0.566232 -0.434183
0.488087 -0.624208 -0.202688
0.116048 -0.855074 -0.44809
-0.190935 -0.638708 -0.386046
0.475914 -0.0801585 0.310512
-0.0829774 0.23987 -0.0572513
-0.540246 0.359569 0.092043
-0.147662 -0.482228 0.0357051
0.465689 0.0903574 -0.0724851
0.218789 -0.0114945 -0.258951
0.242208 -1.01398 -0.41294
0.239207 0.101168 0.107353
-0.360002 -0.00142619 0.0543456
0.299388 -0.0603078 -0.303369
-0.272702 0.207626 -0.0473525
0.113422 -1.03885 -0.019058
-0.188628 -0.529891 0.071528
0.154972 -0.106615 -0.0297395
0.42477 0.195603 0.22883
-0.106081 -0.7947 0.0788697
0.134219 0.340843 -0.103637
0.314683 0.216494 0.305288
0.0587207 0.401514 -0.100675
-0.321992 0.612673 -0.0195004
-0.235336 0.519226 0.0440914
-0.490264 0.235274 0.125205
0.243282 -0.850911 0.166263
0.374125 -0.263952 0.221003
0.0721155 -1.03837 -0.0240327
0.389253 0.0252055 0.320016
-0.107169 -0.713116 0.0702211
0.220073 -0.679092 -0.414957
-0.218725 -0.746545 0.0949892
-0.393919 0.155624 0.0183033
0.175711 0.304965 -0.0300018
-0.0721057 -0.405985 -0.0288373
0.452964 -0.298377 0.352868
-0.0462588 0.669309 0.0228314
-0.424339 -0.0267347 0.0735788
0.38953 -0.032967 0.00067349
-0.14692 -0.310544 -0.367129
0.492984 -0.603535 0.208209
-0.361354 -0.943592 -0.230239
0.206549 0.151749 0.0394035
0.30372 -0.090872 0.413572
-0.0338557 0.565693 -0.0135659
0.00125423 -0.912523 -0.498589
-0.318544 0.581804 -0.0204983
-0.483414 0.169983 0.114442
0.351413 0.000399153 -0.243683
0.322056 0.00848781 0.322684
-0.37562 -0.60071 0.00172196
0.497111 -0.671503 -0.12866
0.437454 0.153013 0.150495
-0.293425 -0.160267 0.0132955
-0.226612 0.275776 -0.162499
-0.112521 0.400936 -0.0748705
-0.500886 -0.0265952 0.038331
0.0489725 0.772296 0.101738
0.370707 -0.537432 0.257697
-0.364431 -0.683803 -0.00461898
0.0716013 -0.520049 0.0260165
0.596966 -0.311467 0.252354
0.280926 0.0118264 0.283544
-0.478933 0.143758 0.109661
0.494368 -0.278942 0.369166
0.334715 -0.0151034 0.287237
0.0131541 0.0260718 -0.0469406
0.180813 0.239243 -0.0661241
0.429289 0.151618 0.208276
0.23951 0.0633076 0.355257
0.0325129 0.521974 -0.0490386
0.112035 -0.56133 -0.437782
0.142599 0.313464 0.0360763
0.511272 -0.330462 0.044189
0.0425565 0.0778978 -0.00338942
0.121689 0.544367 0.0226281
0.527389 -0.278017 0.364051
0.051535 0.485085 0.1211
0.220035 0.196611 0.151974
0.0388608 0.0209734 -0.0395322
0.291539 0.0390782 0.0899042
-0.233382 -0.0923575 -0.0430831
0.445662 -0.609561 0.222325
0.225776 0.167576 -0.059733
-0.0396717 0.246467 -0.115247
0.139448 -1.12648 -0.336472
0.494319 -0.240386 0.100108
0.346084 -0.365684 0.145501
-0.313163 -0.919894 -0.353924
-0.374169 -0.0838483 -0.138978
0.134268 -0.89417 -0.451838
-0.0388506 0.2705 -0.102776
-0.406643 -0.339327 -0.00365205
0.296918 0.0764229 0.112791
-0.255262 0.428984 0.0233752
-0.203039 -0.309732 0.0356254
0.451375 0.16905 0.0908219
-0.359261 -0.740306 -0.211259
-0.315906 -0.926079 -0.0567183
-0.0754156 0.773666 0.122452
0.292981 -1.07876 -0.16621
0.212302 0.192615 0.0832506
0.463044 0.124719 -0.0413373
-0.0902808 0.75194 0.127156
0.270854 -1.02335 -0.0596912
-0.266318 0.443567 -0.104436
-0.0257692 0.0559879 -0.16699
-0.0767456 0.20863 -0.154856
0.046001 -0.0112835 -0.0353751
-0.203297 -1.1282 -0.321868
0.139823 -1.03477 -0.0164132
0.113549 -0.803841 0.161483
-0.212868 0.316939 0.019687
-0.0665871 0.565562 0.0271955
0.526195 -0.352814 0.0440697
0.599679 -0.211691 0.24282
-0.0455707 0.00956203 -0.137516
-0.0963033 0.670521 0.112352
-0.0589419 0.0789588 -0.125356
-0.100002 0.699042 0.115479
0.228525 -0.12403 -0.0139083
-0.368319 -0.778492 -0.138062
0.513894 -0.483976 0.261306
-0.205439 -1.00182 -0.000549305
-0.35573 -0.935278 -0.266856
-0.325487 -0.198006 0.0358315
-0.045806 0.0178026 -0.111973
0.359984 -0.0303986 0.0108437
0.276621 -0.00242607 0.305913
0.343357 -0.977339 -0.190724
-0.177936 0.687262 -0.0366287
0.214419 0.148233 0.0835106
-0.12515 -0.00100524 -0.0582185
0.212864 -0.849834 0.167459
0.520836 -0.357821 0.320228
0.444181 -0.309826 0.068717
0.511316 -0.683915 -0.0491123
-0.167479 -1.12685 -0.327335
-0.0441675 0.366101 -0.0517943
-0.580476 0.280345 0.0592602
-0.093833 -1.10116 -0.411741
0.592981 -0.514833 0.114497
0.294256 -0.13172 0.304182
0.204346 -0.419288 -0.425312
-0.41031 -0.309488 -0.00549568
-0.528193 0.0592802 0.0588459
-0.00898529 0.560979 -0.0263692
0.302299 -1.07525 -0.19174
0.354672 -0.95112 -0.178123
-0.0883626 -1.0899 -0.447612
0.0138486 -0.99774 0.00220295
0.555356 -0.410401 0.0430385
-0.0819829 -1.15364 -0.245398
0.0392404 0.489849 -0.0659348
0.040201 -0.60398 -0.443249
0.386053 0.0854914 -0.175242
-0.296879 -0.156047 -0.148985
-0.220813 0.302859 -0.159822
-0.257866 -0.000105208 -0.142156
0.360481 -0.371469 0.17111
0.0234001 -0.567579 -0.440489
0.35626 -0.0295169 -0.270356
0.239038 0.243709 0.0258935
-0.0989547 -0.428575 -0.00790456
0.240457 0.102051 -0.13609
-0.0682908 0.0529652 -0.0669738
0.00277555 0.792036 0.125823
-0.292211 0.340107 -0.0463283
-0.0794417 -1.1684 -0.198052
0.416141 -0.0275963 0.27779
0.313701 -0.027829 0.332212
-0.0401467 0.137179 -0.129767
-0.0483735 0.375064 0.0612957
-0.213324 0.250964 -0.174296
-0.193706 -0.131414 -0.292588
0.303437 -0.552525 -0.391853
-0.488735 0.221942 -0.0215396
0.309073 -0.0186168 0.0190769
-0.197003 0.705047 -0.0313511
0.042372 -0.197003 -0.061614
0.414456 -0.850431 -0.124998
0.414214 0.0771212 -0.165981
-0.272651 -1.12824 -0.31843
-0.369608 -0.763112 -0.160491
0.485213 -0.125464 0.177253
-0.491015 0.36129 0.0732384
0.260126 -0.978474 -0.389059
0.0512358 0.439006 -0.0875951
-0.354265 -0.791979 -0.0449784
0.457383 -0.0966601 0.192331
-0.207002 -0.0434641 -0.250989
-0.484733 0.313253 0.0205163
-0.0339756 0.100409 -0.141411
-0.283245 -0.682955 -0.321431
0.389447 -0.28692 0.285161
0.166793 -1.03075 -0.017086
0.20115 -0.373351 -0.425492
0.224498 -1.12148 -0.353851
0.0355755 -0.715608 -0.456522
0.476976 -0.617844 -0.229154
0.0492485 0.226485 -0.17733
0.435637 -0.182993 -0.0765347
-0.454735 0.129864 0.0999341
0.180752 -0.457825 0.115782
-0.0923876 0.0134603 -0.252179
0.0531156 0.752768 0.120775
0.254604 -0.132418 -0.356488
-0.33559 0.0323241 -0.0249169
0.349604 0.0287099 -0.222622
-0.234173 0.210545 -0.00461154
0.209398 -1.00851 -0.443018
-0.30849 -0.179354 0.0274106
-0.255469 -0.674941 0.0901544
0.0424723 0.544106 0.135843
0.479185 -0.742437 -0.0785738
-0.0845425 -0.569349 -0.426981
0.103838 0.0492859 -0.270652
0.414259 -0.0324835 -0.00961347
-0.0620047 -0.777323 0.0660917
0.377582 -0.277725 0.255231
-0.39972 0.158165 0.0461562
0.209767 -0.47267 -0.42446
-0.404782 -1.14418 -0.166909
-0.116266 -0.394353 -0.387145
0.00891036 -0.602061 -0.442143
-0.275844 0.13307 -0.094752
0.295408 0.273196 0.00190225
0.242494 -1.02717 -0.0420836
-0.564401 0.34809 0.0881872
0.457751 -0.120438 0.383459
-0.493694 0.121322 -0.0416384
0.122542 0.526184 0.0646906
-0.204349 0.438965 0.0283847
0.0175334 -0.765423 0.0788734
-0.11587 -1.0137 -0.00933726
0.215996 0.179142 0.207373
-0.133885 0.536112 -0.0478023
0.268405 0.120427 0.358993
0.435708 -0.0487509 0.287344
0.381124 -0.838387 0.114628
0.328834 0.259287 0.115641
0.219662 0.218295 0.0423563
0.311739 0.161476 0.349959
-0.14774 0.603294 -0.0399084
-0.249921 -0.909906 -0.417604
0.462937 0.161561 0.0146934
-0.282743 0.426864 0.0020979
-0.34835 -1.04805 -0.125254
-0.128437 0.509809 -0.0492673
0.577809 -0.47457 0.0310692
0.209621 -0.226873 -0.402764
-0.132814 -0.464286 0.0225188
-0.360272 -0.790289 -0.0725881
0.0630145 0.751066 0.0928745
-0.385774 -1.11541 -0.153201
-0.309912 0.519854 -0.0158869
0.228977 -0.965402 -0.419159
0.198856 -0.340343 -0.423951
-0.485369 0.288935 0.00862058
0.40848 0.0556819 0.296247
0.183203 0.216635 -0.0800444
0.237878 -0.681789 0.230978
0.0859068 0.338871 -0.131389
-0.0682924 -1.1934 -0.119421
-0.36605 -0.785631 -0.104326
0.572275 -0.573005 0.0988843
-0.357604 -0.951398 -0.198701
0.177859 0.276187 -0.0455385
0.0539867 0.172288 0.0524776
0.477797 0.0146478 -0.092312
0.444598 -0.801846 -0.100735
-0.433386 0.148659 -0.0399165
-0.0243604 0.0450803 -0.0917978
-0.0668425 -1.02482 -0.0225176
0.400369 -0.296274 0.307946
-0.189524 0.674825 -0.0593206
0.309481 -1.06529 -0.260701
-0.326913 -1.01205 -0.11708
0.236265 -0.822221 -0.406374
0.177305 -0.018447 -0.0109924
0.344456 0.0904289 -0.18183
-0.447582 -0.0243547 -0.0904653
-0.243974 -0.0585764 -0.135576
0.0382058 -0.9561 0.0323486
-0.473972 -0.0975093 0.0272791
-0.368452 -0.655022 -0.000547525
0.260169 -1.02463 -0.391392
-0.453719 -0.159994 0.0128317
0.210779 -0.712278 0.221222
0.482372 -0.274229 0.0800607
0.232625 -0.433589 0.150778
0.423948 -0.279099 0.0057083
0.0561493 0.459439 0.115668
0.209788 0.121842 0.020621
-0.279976 0.18639 -0.0940256
0.291184 0.142008 0.360025
-0.193072 0.172313 0.00665503
-0.0538987 0.519878 0.116225
0.445518 -0.0783469 0.364838
0.0645117 0.428239 0.105263
0.582306 -0.543076 0.0940504
0.167209 0.331627 -0.0565145
0.384773 -0.219489 0.395336
0.393583 -0.0291552 0.250085
-0.140691 -1.12611 -0.331254
-0.433004 -0.219088 0.00287328
-0.295761 -0.916616 -0.374561
0.376867 -0.46007 0.244086
-0.147223 0.458313 0.00756612
0.156244 -0.760307 0.193947
0.522114 -0.381983 0.307393
-0.466575 0.0826719 -0.0632885
0.25145 -0.58829 -0.409339
0.456449 0.170379 0.0517054
-0.0597502 0.0981754 -0.106564
0.237462 0.0778572 -0.146886
0.30712 -0.0983128 0.00409339
-0.284688 0.242062 -0.0873536
-0.562815 0.197638 0.0988898
-0.0438616 0.305023 -0.0627588
0.35317 0.228076 0.279171
-0.292251 -0.991398 -0.0676204
-0.209575 -0.558504 0.0834131
-0.19325 0.632877 -0.0735404
0.105636 -1.12611 -0.337055
-0.0929806 -1.01794 -0.0222163
0.311106 0.182853 0.333645
0.205341 -0.254849 -0.410076
0.0339444 -0.919693 -0.491895
-0.241714 0.708972 -0.0113671
0.2344 -0.795399 -0.408474
0.309776 -1.00126 -0.308005
-0.317218 -0.788463 0.0409955
0.322593 -1.03094 -0.206095
0.0606229 -0.322996 -0.0667735
-0.394234 -0.423295 -0.00695391
-0.113345 -1.12618 -0.332274
-0.309118 -0.352768 0.0579848
0.101536 -0.830301 -0.448757
0.0589855 0.199224 0.0603027
-0.292655 -0.772852 0.0680162
-0.215307 -0.647875 -0.370451
-0.232331 -0.0534529 -0.112164
-0.430703 0.269086 0.0577546
-0.0481425 0.270572 0.00983808
0.466269 -0.764906 -0.0879242
0.0561457 -0.905766 0.0834576
0.333108 0.0755167 0.117083
0.068461 -0.773663 -0.453854
-0.573421 0.266153 0.106136
-0.115635 -0.00134903 -0.262626
0.323985 0.244518 0.23994
0.422046 -0.28836 0.0927425
0.419339 -0.241745 0.389672
0.50356 -0.30198 0.35881
-0.0593576 0.0392831 -0.12208
-0.312756 -0.696529 -0.292151
0.261461 0.0871797 0.114534
-0.200896 0.0246366 -0.241402
-0.0681032 0.0153431 -0.231485
-0.18034 -0.183217 -0.323617
0.202822 -1.02783 -0.0248809
-0.0377254 0.112415 -0.116343
0.38931 -0.190884 -0.0420522
0.192742 -0.318325 -0.0119716
-0.422101 -0.246497 -0.00444597
0.302304 -1.05291 -0.305671
-0.0385454 0.175324 -0.1418
-0.199326 0.609994 -0.0862639
0.00764635 -1.12514 -0.338339
-0.0815355 -1.12674 -0.331248
0.393538 0.0889275 0.354522
-0.00971912 0.640808 -0.0074651
0.169893 0.336478 -0.0152477
0.428972 -0.826495 -0.114571
0.166191 -1.12471 -0.341982
0.455454 -0.0644087 0.29762
-0.508764 0.000895475 0.0450864
-0.107436 -0.619186 -0.422457
-0.451553 0.0628273 0.0954917
-0.283506 -0.135518 -0.136482
0.182135 -0.736194 0.208324
0.588183 -0.39874 0.204512
-0.17969 0.0341029 -0.033558
-0.147252 -0.0158251 -0.0621148
-0.23184 0.453116 0.0329695
0.473304 -0.0977192 -0.167003
0.39862 -0.298865 0.108619
0.38665 -0.0887838 0.427279
0.280379 0.224325 0.287376
-0.526371 0.102664 -0.0134149
0.31396 -0.216729 -0.0260027
0.172915 -1.06914 -0.0453135
0.0199969 0.580414 -0.0259124
-0.0678331 0.102973 -0.19481
0.336447 0.213531 -0.0776122
-0.303341 0.48646 -0.00730575
-0.0484102 0.194825 -0.101559
-0.466261 -0.124577 0.0206456
-0.0189375 -0.224178 -0.0551191
0.293591 0.0183939 0.0723736
-0.318819 -0.894355 -0.0398932
0.09397 -0.821112 0.145559
0.207294 -0.445893 -0.424674
0.592811 -0.24642 0.316379
0.0298018 0.598669 0.156276
0.342696 0.117133 -0.161635
-0.339422 -0.71429 0.0200503
0.0341878 -1.12514 -0.339675
-0.190624 0.490191 -0.120381
-0.385411 -0.218652 -0.143057
-0.293738 0.366768 -0.036146
0.212339 0.0211161 -0.114031
-0.216351 0.44674 -0.125701
0.562427 -0.556865 0.00810276
-0.208243 -0.0432353 -0.07995
-0.201239 0.259534 0.0102309
-0.230924 -0.594009 0.0906587
0.287795 -0.989188 -0.350942
-0.121069 -0.908253 -0.480687
-0.219061 0.122919 -0.210841
-0.433295 0.0123842 -0.0918575
0.598789 -0.209312 0.306843
0.209467 -0.297332 -0.0160928
0.514761 -0.457548 0.271928
0.0552917 -0.550777 0.0205311
0.078219 -0.561438 -0.436939
-0.048404 0.327426 0.0359593
-0.0696381 -0.906993 -0.495363
0.253819 0.21555 0.281029
-0.178641 -0.00840606 -0.257165
0.0272235 -0.975178 0.016881
-0.465669 0.0957815 0.102485
0.0566759 0.718508 0.0402939
-0.0183181 0.0904053 -0.0390943
-0.116406 -0.444593 0.00832185
0.386294 -0.0124716 0.270218
0.508842 -0.524268 0.244921
-0.322405 0.0089773 -0.0297145
0.385369 -0.894563 -0.148924
0.396199 -0.517024 0.247555
0.57682 -0.183603 0.323806
-0.0275598 0.796408 0.113615
-0.312811 0.670019 -0.0226785
-0.404993 0.167441 -0.00555898
-0.461604 0.137899 -0.0475371
0.429405 -0.0719826 0.208335
-0.56684 0.25523 0.0351025
-0.548135 0.122872 0.0741704
0.456075 -0.187965 -0.110092
0.345966 0.0596029 -0.202233
-0.238187 -0.660959 -0.354713
-0.0289228 -1.03341 -0.02194
-0.347136 -0.73409 -0.240291
0.333204 0.266205 -0.02735
0.162563 0.0525171 -0.251194
0.0255848 -0.672761 0.0588146
0.585302 -0.200586 0.207327
0.298696 -1.09464 -0.211944
-0.227599 -0.0493557 -0.232276
0.0516625 0.146912 0.0430038
0.473457 -0.0725388 -0.154703
0.600523 -0.263244 0.277879
0.322954 -0.1852 -0.0216218
-0.267847 0.702614 -0.0092826
-0.319911 0.642912 -0.0182128
0.0459359 0.466306 -0.0765947
-0.493435 0.262122 0.127728
0.122135 0.305834 0.0514212
0.485028 -0.629031 0.195932
-0.119903 0.468104 -0.0543598
0.141806 0.459531 0.0367835
-0.0197597 -1.084 -0.0384554
0.469902 -0.699446 -0.165927
0.116604 -0.147947 -0.0528144
-0.0223304 0.0586568 -0.193582
-0.227955 0.212957 -0.174019
-0.0759038 -1.17639 -0.172905
-0.366988 -0.75046 -0.184054
0.00679858 0.666955 0.175566
0.190196 -0.251933 -0.0490527
-0.273465 -0.138632 -0.00604345
0.145395 -0.387623 0.00333766
0.0453942 -0.937748 0.051564
-0.441797 -0.193745 0.00773403
0.201193 -0.0942423 -0.0115012
-0.444756 0.0350533 -0.0820181
-0.0527212 0.788654 0.11942
0.326255 0.253041 0.18661
-0.325481 -0.845628 -0.00926733
0.189966 0.141761 -0.121532
-0.0379398 0.219442 -0.128606
0.0114591 0.506328 0.130762
-0.0487972 0.295487 0.0203315
0.368834 -0.436566 0.233836
-0.014044 0.0380293 -0.0681102
-0.288429 -0.0494823 -0.0413691
-0.096324 0.267256 -0.04459
0.239286 -0.854287 -0.40439
0.230983 -0.768797 -0.409399
-0.0259428 -0.367455 -0.0513035
0.21908 0.187547 0.181713
0.528729 -0.627317 0.159883
0.503871 -0.684191 -0.0869023
0.204895 -0.283721 -0.416888
-0.267833 0.0602231 -0.118083
-0.278828 0.59846 -0.0756294
-0.103612 0.0150457 -0.0558958
0.323732 -0.148701 0.408939
0.313062 0.12189 0.367812
0.284061 -0.00962122 0.0160268
0.403759 -0.105549 0.414724
-0.360673 -1.07104 -0.135828
-0.0964127 -0.913661 -0.490837
-0.40741 0.195579 0.0355755
0.124305 -0.413523 -0.00775948
-0.460854 -0.0505754 0.0631279
-0.417333 -1.12395 -0.326166
0.214857 0.0630062 -0.0462775
0.425263 -0.317619 0.0496819
-0.182958 -0.0365156 -0.261756
-0.150644 -1.00917 0.0027905
-0.513328 0.362169 0.090043
0.0186741 -1.04148 -0.0252511
-0.0591926 -0.246375 -0.0573342
0.346914 0.162482 -0.120294
-0.14039 0.278947 -0.175239
0.212864 -0.587128 -0.420722
0.592678 -0.46809 0.150337
-0.0504225 0.433491 0.0866235
0.473371 -0.0472338 -0.145796
0.244709 0.24346 -0.00584447
-0.181503 -0.032336 -0.0631378
0.5742 -0.497491 0.0178992
-0.372318 -0.627147 0.000972567
0.135975 0.0173967 -0.0346541
0.223112 0.0294291 -0.010533
0.373141 -0.302933 0.0976261
0.583136 -0.525259 0.0696594
-0.243121 -0.0568849 -0.208163
-0.242106 -0.327481 0.0511044
0.413443 0.10907 0.187589
0.342867 0.141548 -0.141292
-0.122631 -0.369196 -0.381342
0.542236 -0.156736 0.335999
-0.214974 0.329174 -0.158684
-0.39072 -1.12414 -0.326606
-0.498388 0.288831 0.129828
-0.0676022 0.0762019 -0.206242
0.0172282 -0.735547 0.073138
0.329404 -0.849336 0.143621
0.550927 -0.267721 0.356996
0.106067 0.0132513 -0.0384505
0.272445 -0.409592 0.177084
0.433445 -0.118892 0.396025
0.0195083 -0.709776 0.0668963
0.0582484 0.372933 -0.113983
-0.208342 0.420877 -0.137189
-0.352951 0.0617784 -0.0160131
-0.186768 0.520992 -0.115151
0.0554458 -0.750513 -0.45582
-0.0914759 0.298071 -0.114218
0.379352 0.261239 0.015055
0.0979827 0.2963 0.0598538
0.36619 -0.341184 0.222936
-0.454302 0.057766 -0.0717939
-0.147166 -0.912561 -0.475031
-0.228822 0.417795 0.0291557
0.359774 -0.407429 0.211895
-0.476845 -0.045351 -0.064408
0.00216791 -0.354764 -0.0554386
0.00632484 0.612995 -0.0167052
0.210626 0.0184798 -0.140604
0.424704 -0.297533 0.0251692
0.292976 -0.036379 0.377765
-0.039311 0.288486 -0.0832139
-0.19028 0.141516 0.00466607
0.451881 -0.0231611 -0.0357846
-0.0221843 -1.12665 -0.333355
0.334635 -0.0259743 0.0182239
0.21196 -0.526794 -0.423151
-0.268142 -0.338159 0.0570297
-0.0280614 0.0549585 -0.129691
0.289978 -0.22965 -0.0218183
0.398946 0.0269574 0.351066
-0.298083 0.448861 -0.0122181
0.244478 -1.08459 -0.0939424
-0.319434 -1.12707 -0.320276
-0.079174 -0.48698 -0.414754
0.00895438 0.676641 0.00527684
-0.132937 -0.34384 -0.374536
-0.366798 0.0906251 -0.00529049
0.455902 -0.795083 0.0207435
-0.29736 0.423018 -0.0203024
0.416777 0.107607 0.237697
0.155359 -0.278844 -0.0584252
0.240237 -0.155994 -0.370893
0.0291412 0.546417 -0.0386132
-0.100516 -0.445143 -0.399969
0.470151 -0.260329 0.378733
-0.210825 0.221028 0.00323594
-0.164578 0.270451 -0.185255
0.352427 -0.0936521 -0.327647
-0.0728027 0.176447 -0.16669
0.390697 -0.572942 -0.340657
0.148277 0.428448 0.025669
-0.450735 0.312693 0.0621841
-0.335634 -0.750973 0.0145827
-0.279407 -0.0736552 -0.049097
0.46907 0.0677049 -0.0873041
-0.0733724 0.20963 -0.0673582
0.303923 -0.055137 0.0144372
0.426979 -0.248138 -0.01896
0.0960037 0.626765 0.100361
0.102063 -0.933082 -0.472074
-0.395569 -0.0559144 -0.122511
0.0780121 0.517348 0.112838
0.568389 -0.570977 0.072639
0.57038 -0.551204 0.05423
-0.049187 0.329734 -0.048622
-0.541902 0.0977285 0.0662955
-0.0483943 0.35097 0.0490068
0.324378 0.24922 0.213463
-0.409703 -0.0369033 -0.109494
-0.388456 -0.494662 0.00313767
-0.523518 0.094487 0.0863899
0.210772 -0.235582 -0.0387909
-0.398048 -0.266244 0.0233594
-0.154754 0.629256 -0.0414554
-0.48826 -0.059625 0.0340671
0.0790621 0.552607 -0.0302789
-0.154436 -0.282407 -0.362777
-0.178698 0.446253 0.0247276
0.379446 -0.248351 0.199769
-0.0861669 0.0354914 -0.0542138
-0.114218 0.259263 -0.0190158
-0.0296741 0.338481 -0.0888333
-0.0741263 -1.18442 -0.147115
0.575737 -0.524264 0.031734
0.46305 0.0440012 -0.125823
0.268923 -0.54134 -0.406548
-0.489372 0.163394 -0.0324203
-0.374525 -0.157334 0.0588849
0.0025728 -0.666609 -0.448882
-0.0534064 0.0280023 -0.0879152
0.439491 0.208089 0.0401803
-0.0510508 0.0098534 -0.167259
-0.335824 -0.711405 -0.263244
0.435014 0.142008 0.175265
0.0118436 0.629636 0.16743
0.494564 -0.647961 -0.162745
-0.378338 0.0149472 -0.0935164
0.390473 0.0876168 0.109844
0.0735946 0.0160785 -0.0389737
0.243408 0.0414794 0.370509
0.071277 -0.86133 0.118408
-0.00173194 0.339952 -0.115298
0.542399 -0.624795 0.136867
0.392603 0.0902446 0.184621
0.413908 0.23441 0.0290494
-0.272696 -0.913846 -0.399824
-0.351688 0.0266371 -0.0752797
0.385035 -0.559846 0.256683
0.249055 -0.0388193 -0.280108
-0.053578 0.400972 -0.0247044
0.212139 0.011031 -0.235567
0.340901 -0.225087 0.270945
0.104641 0.527249 0.0916697
0.352826 0.27201 0.00986259
-0.0376215 -0.768773 0.0585961
-0.0964046 -1.1184 -0.357237
-0.258826 -0.671078 -0.340912
0.321517 0.235104 0.277735
-0.414409 0.219386 0.0451224
0.387532 0.0601468 0.372273
-0.0805243 -0.610377 -0.428034
0.202684 -1.07517 -0.0616456
-0.349439 -0.635485 0.0329089
0.348027 -0.569168 0.260639
-0.271095 0.0923104 -0.104548
0.316882 0.0960227 0.380751
-0.296931 0.397646 -0.0285705
0.0620566 -0.881142 0.103026
0.0692286 0.392269 0.0927075
0.260173 0.000930581 0.0107556
-0.218177 0.576535 0.0486754
0.340958 -0.213211 -0.023
0.286869 -0.852995 0.158613
0.0965177 -0.309518 -0.0631347
-0.227751 0.551697 0.0480188
0.0564013 0.275649 -0.157341
0.413998 0.077818 0.270866
-0.224321 0.60006 -0.0956514
-0.383784 -0.539524 0.00393103
0.0587492 0.305443 -0.146383
0.384717 0.00156863 0.292873
0.195774 0.0830238 -0.167688
0.176357 -0.0841925 -0.0188433
-0.0753035 -1.06974 -0.511971
0.336275 -0.0747807 -0.316819
0.0826332 -0.841919 0.13329
-0.306677 -0.0177136 -0.0332293
0.522707 -0.6611 -0.0378474
-0.0696482 0.128382 -0.18509
-0.39765 0.00512125 0.0694718
-0.0533602 -0.541491 -0.430949
0.473241 -0.1235 -0.17814
-0.0770786 0.667459 0.0533409
0.216674 0.0751966 -0.0107495
0.223886 0.143565 -0.0739683
-0.17912 0.23563 0.00414463
-0.116924 0.282652 -0.161689
-0.571327 0.238837 0.103782
-0.0626492 0.504195 0.0956139
0.260197 0.0889163 0.364871
0.192304 0.118962 -0.137949
0.594199 -0.344453 0.234402
0.26688 -0.656891 0.238983
-0.237742 0.246579 -0.163325
0.416486 -0.562321 0.244718
-0.257571 0.206556 -0.022453
-0.195738 0.198787 0.00624734
0.376219 -0.320022 0.118538
-0.23518 -1.12844 -0.31948
0.50326 -0.142047 0.166786
-0.341569 -0.792809 -0.0105713
0.541903 -0.385612 0.0422908
-0.163868 0.662142 -0.0398369
-0.108501 0.375515 -0.0823843
0.232228 0.052367 -0.15279
0.374481 0.0210807 0.342035
-0.289464 0.306598 -0.0619584
0.0298773 -0.647984 0.0492696
0.208992 0.179897 0.0542668
0.133312 -0.29381 -0.0562734
0.368833 -0.350705 0.14447
-0.271972 -0.111049 -0.108322
0.0713436 0.361219 0.0821464
-0.345068 -0.679195 0.0264774
-0.403857 -0.234864 -0.130484
0.252021 -0.421403 0.16477
-0.555202 0.234111 0.0146168
0.333624 0.248862 -0.0481856
-0.0451554 0.210221 -0.0125141
-0.0154889 0.5087 0.13171
0.510452 -0.184939 0.133855
0.334572 0.135698 0.359959
0.249776 -0.146644 -0.0147046
-0.556688 0.17205 0.0932714
0.358893 -0.194382 -0.0296992
-0.0856652 0.608784 0.107768
0.293432 -1.04936 -0.330548
0.47168 -0.770062 -0.0359216
0.473696 -0.297334 0.0687312
0.19947 0.0625058 -0.186157
0.360905 0.0800795 0.113283
0.211666 -0.556314 -0.422537
-0.20573 0.287085 0.0150963
0.0711167 -0.609076 -0.441935
-0.0154154 -0.566599 -0.438184
0.386898 -0.484761 0.249196
-0.147597 0.244576 -0.00171313
0.0854443 -0.494615 0.0258533
0.272976 -0.164189 -0.0140523
-0.422225 0.244009 0.0525411
0.0373536 0.280394 0.0716236
-0.230483 -1.0005 -0.0107789
-0.373173 -1.09293 -0.145442
0.017906 -0.688073 -0.453458
-0.00909058 0.061692 -0.0500184
0.352048 -0.186733 0.403024
0.327254 0.0629599 0.193279
-0.350548 -0.960036 -0.167252
0.501717 -0.217798 0.113181
-0.331991 -0.815165 0.000422573
0.0735606 0.726403 0.0819743
0.353601 -0.84426 0.13123
0.30794 -0.162898 0.295574
0.475488 -0.0060008 -0.0735167
0.379802 0.22024 0.269852
0.217423 -0.648202 -0.416597
-0.282532 -0.803443 0.0671493
-0.104117 0.349278 -0.0910826
0.0726333 0.288642 0.0661914
-0.518243 0.0328792 0.0531216
0.437914 -0.599113 -0.292341
0.438339 -0.179899 0.146077
0.2274 -0.278335 -0.021107
-0.488993 0.195939 -0.0279675
0.102053 0.546899 -0.0142362
0.444228 0.161766 0.117829
0.0429212 -0.0540816 -0.0337718
0.269715 -1.0862 -0.126037
-0.116445 -0.271027 -0.0275428
0.0360442 0.680038 0.00991604
-0.187352 -0.91226 -0.457346
-0.273686 -0.75375 0.0829987
0.224236 0.120789 0.0972135
0.462636 -0.684763 -0.197974
-0.0534614 -1.12712 -0.331499
0.390291 0.0185327 0.376122
-0.178043 -1.00261 0.00690535
0.604741 -0.222072 0.266867
0.00262645 0.0472343 -0.234027
-0.0433781 -0.907974 -0.500545
-0.156904 -0.629658 -0.402451
-0.379015 -0.574148 0.00207073
0.514981 -0.323192 0.341515
0.510654 -0.626471 0.180163
0.465889 -0.0950837 0.358209
0.165821 0.362011 -0.00257183
0.227024 0.187814 -0.0418644
-0.391255 -0.463688 0.00296626
0.321221 -0.18691 0.289338
-0.536559 0.217702 -0.00378789
0.0712303 -0.928068 -0.480422
0.296441 -0.00173216 0.0512696
-0.0498371 -0.385925 -0.0440198
0.489915 -0.31531 0.0514061
-0.384133 -0.132681 0.0638927
0.234514 0.09018 0.333419
-0.053657 0.0239859 -0.189835
-0.185197 -0.156147 -0.310113
0.0516356 -0.564249 -0.439084
0.153742 0.337732 -0.08483
0.0321139 -0.337425 -0.0638582
-0.253886 -0.998848 -0.0242858
0.327779 -0.553502 -0.38091
0.350016 0.015204 0.333004
0.210026 -0.447437 0.138974
-0.421468 -0.25025 -0.105828
0.501248 -0.55598 0.233385
-0.331718 -0.791695 0.0146327
0.0693867 0.711284 0.115192
0.495191 -0.714548 -0.0631545
-0.185861 0.0776627 -0.0104101
0.122617 -0.426965 0.0160789
-0.0670765 0.0509381 -0.214501
0.0725513 -1.12634 -0.336914
-0.022634 0.670664 0.010624
-0.152087 -0.0207599 -0.265813
-0.222037 0.151625 -0.192591
-0.295757 0.603133 -0.0556328
0.284623 -0.632887 0.246229
0.248265 -0.892996 -0.398992
-0.132854 -0.623844 -0.413213
0.211797 0.167998 0.244833
-0.263591 -0.120739 -0.0250287
0.210258 0.137674 0.232849
0.308742 -1.07167 -0.229308
0.141389 -0.564762 -0.438725
0.167265 0.0265716 -0.0207244
0.136203 0.486818 0.046193
0.283932 0.0264425 0.260847
0.445134 -0.804154 0.0451923
-0.205093 0.0563097 -0.235045
0.498415 -0.579726 0.221158
-0.143527 0.466844 -0.109067
0.00733529 0.280818 0.066582
0.220439 0.10048 -0.098564
-0.211931 0.395388 -0.145209
-0.0291617 0.127205 -0.0322903
-0.366063 -0.202656 -0.152158
0.541694 -0.615102 -0.0171605
0.438147 -0.665841 -0.256584
-0.0642767 0.161481 -0.0805317
-0.0789718 0.58307 0.105965
-0.321319 -0.969805 -0.0950476
-0.343501 -0.928022 -0.301046
-0.397264 -0.0245295 0.070523
0.366882 0.0761617 0.186303
0.599449 -0.287105 0.265169
-0.0490466 0.399278 0.0726213
0.00794695 -0.211991 -0.0550634
0.0654287 0.263257 0.0701049
-0.0677634 0.538248 0.101253
0.528482 -0.254335 0.111101
0.161344 -0.362651 -0.00452815
0.451711 -0.285372 0.0789652
-0.0607037 0.122478 -0.0947763
0.0820873 -0.79656 -0.452105
0.416654 -0.581544 -0.31841
-0.227926 0.182607 -0.18185
-0.364626 -0.109108 -0.145312
-0.117662 -0.564139 -0.413743
0.387361 -0.102714 -0.312082
0.594502 -0.490245 0.134604
0.590432 -0.372289 0.219693
0.135024 -0.942223 -0.465818
0.367857 -0.372789 0.210341
-0.0983152 0.321271 -0.101994
0.213667 0.101175 0.00433725
0.474584 -0.185524 -0.151231
0.460458 0.151432 -0.0102517
-0.263201 -0.70886 0.088804
0.0615818 0.236944 0.0687481
-0.550819 0.146998 0.0855952
0.081845 0.679566 0.107592
0.133482 -0.785526 0.177026
0.0439782 0.510462 0.124739
-0.0929581 -1.13373 -0.308154
0.222268 0.135793 0.293139
0.396685 -0.21891 0.175422
0.200113 -0.31015 -0.421019
0.350604 -0.00173805 0.411355
-0.223322 0.391467 0.0282961
0.587878 -0.498381 0.0560477
0.473685 -0.179593 -0.206457
-0.486104 0.201975 0.118885
0.0493484 0.697596 0.0255458
-0.0348678 0.295106 0.0460082
0.0360561 0.573312 0.147626
-0.124911 0.471687 -0.0810069
0.190226 -0.956545 -0.445151
0.296647 -0.178305 -0.0158628
0.514938 -0.136416 0.343229
0.0655697 -0.183035 -0.0631017
-0.334455 -0.184902 -0.159459
0.405557 -0.0463637 0.23233
0.436176 -0.579401 0.23808
-0.219109 0.363494 0.0256308
-0.272743 -0.996116 -0.0434295
-0.260466 -0.0977681 -0.0599299
0.222709 0.00651865 -0.211407
-0.352967 -0.227454 0.0429191
-0.400402 -0.0872694 0.0716343
-0.464089 0.33607 0.0688798
-0.174974 -0.210969 -0.336719
-0.182644 -0.733749 0.0912549
-0.474637 0.106727 -0.0540565
0.223758 0.00705724 -0.184626
-0.364247 -0.186877 0.048413
0.058947 0.330005 -0.135663
-0.339983 0.0288825 -0.0509461
-0.0795073 -0.692411 0.0599554
0.474931 -0.729111 -0.117196
0.556939 -0.608304 0.110173
0.520905 -0.405511 0.294908
-0.27965 0.159751 -0.0955268
-0.287443 0.282204 -0.0727212
0.0441295 -0.588342 0.023876
0.573221 -0.442909 0.0422847
0.0244951 0.790455 0.110568
0.188127 0.181057 -0.100504
-0.0411936 0.181205 -0.0243557
0.0377731 0.0380112 -0.259693
0.177918 -0.0521247 -0.0124627
0.225007 -1.07929 -0.0758573
0.480683 -0.119054 0.364952
-0.331244 -0.922648 -0.324245
0.375217 0.00853486 0.395926
-0.0543011 0.459368 0.0914523
0.41186 -0.200207 0.16345
-0.249409 -0.645188 0.0912388
0.112105 0.340144 -0.118539
0.574568 -0.261706 0.340101
-0.159072 -0.289546 0.00982643
-0.0862396 0.274891 -0.12963
0.110358 0.563914 0.0824304
0.328146 0.255957 0.155919
0.0883316 -0.169287 -0.0623617
0.351104 -0.560446 -0.369117
0.216826 -0.199706 -0.392589
-0.337509 0.0246446 0.0184608
0.423128 -0.299333 0.333924
0.16759 -0.570197 -0.433234
0.41647 -0.214161 -0.0445056
0.207519 0.03178 -0.211369
-0.234566 0.489742 0.0400811
-0.240334 -0.619789 0.0915929
-0.0464187 0.239207 0.00101981
-0.248471 -0.759309 0.0910347
-0.25102 -0.0619498 -0.161305
0.357375 -0.38875 0.191812
0.21472 -0.617755 -0.418231
0.466514 -0.179021 -0.232404
0.550601 -0.591581 -0.00454443
0.215584 0.155222 0.271266
-0.115178 0.425376 -0.0642098
0.241283 0.227837 -0.0273062
0.448196 0.06041 -0.141097
-0.262794 0.0287811 -0.131185
0.0442155 0.0986269 0.0143898
0.344996 0.182288 -0.10195
0.50511 -0.265526 0.0916582
0.321943 0.275999 0.00510232
-0.501633 0.103978 0.0999795
0.332422 -1.00685 -0.200369
-0.0550994 -0.604025 -0.433007
-0.0672046 -0.509323 -0.424436
-0.37131 -0.247938 0.0402975
0.457009 -0.169998 -0.255647
0.532566 -0.638835 -0.0266267
-0.187666 0.10704 -0.00165712
-0.384623 0.131057 0.00763356
-0.0504077 0.190409 -0.0728523
0.369902 0.119059 0.354184
0.35747 -0.06595 -0.303154
-0.213641 0.355752 -0.155763
0.422526 -0.12417 -0.305153
-0.181199 -0.299258 0.0235812
-0.433096 -0.00225527 0.0804103
0.334564 0.270756 0.0504702
-0.0960511 -1.10911 -0.385914
0.271814 -0.0491724 -0.290655
-0.408873 -0.0615592 0.0740468
0.228427 0.117747 0.312105
0.0245766 0.338491 -0.124811
0.412273 -0.185414 -0.0555485
0.0450784 -1.03805 -0.027289
-0.294178 0.690296 -0.0141946
0.0483772 0.123576 0.0297471
0.444551 -0.250148 0.385971
-0.162413 -0.499631 0.049844
0.289192 -0.101874 0.317121
0.0458156 0.123539 -0.230148
-0.399811 -0.377963 -0.00116823
-0.194959 0.46382 -0.123699
0.283172 -1.03968 -0.35475
0.211251 -0.499533 -0.423842
0.210962 0.0289869 -0.17597
0.197466 0.0247912 -0.0169376
0.479063 -0.662766 0.171489
-0.586952 0.307159 0.0871441
0.445932 -0.155231 -0.279021
-0.134839 -0.278905 -0.00876458
-0.429172 -0.256335 -0.0809146
0.224016 -0.72505 -0.412518
0.0730515 0.335937 0.0732843
-0.35996 -1.12585 -0.32249
-0.086498 -1.14569 -0.27037
0.250226 -0.259244 -0.0231782
-0.0597207 -1.20183 -0.0923604
0.311877 -0.607296 0.25451
0.0894485 0.654147 0.10352
-0.0845665 -1.07876 -0.482675
0.221195 0.111015 0.215427
-0.314568 0.546547 -0.0211775
0.221962 0.187869 0.263462
-0.0372976 0.154135 -0.0334188
-0.0908064 0.635057 0.110469
-0.493489 0.266197 -0.0034537
0.166201 -0.949794 -0.456222
-0.216499 -0.91093 -0.440822
0.0660539 0.0433542 -0.267389
0.191695 0.0521212 -0.223152
0.227196 -0.177285 -0.38189
0.161771 0.321761 0.0111631
-0.157918 -0.0488694 -0.0587166
0.478428 -0.18021 -0.180133
0.0441576 0.195137 -0.199008
0.465487 -0.782957 -0.00714942
-0.162803 -0.248297 -0.353694
-0.00998718 -1.05841 -0.0276289
